0.000001 0.059040 0.050880 
-0.047360 0.033600 0.017238 
0.033476 0.043200 -0.039896 
-0.027063 0.000000 0.009850 
0.001920 0.079200 -0.003326 
0.005187 0.069600 0.001888 
0.036770 0.024000 -0.030854 
0.023903 0.074400 0.013800 
0.009440 0.074400 -0.025936 
-0.004157 0.001200 -0.002400 
0.005835 0.074160 0.033090 
-0.007387 -0.000480 0.020297 
-0.015599 0.073440 -0.002750 
0.028077 0.070320 0.033460 
-0.018512 0.000000 -0.022062 
-0.000959 0.069600 -0.005436 
-0.021840 0.070320 -0.037828 
0.027152 0.014400 0.032357 
0.041598 0.014400 -0.007335 
0.005418 0.001200 0.014885 
-0.033829 0.007200 -0.012313 
-0.050400 0.033600 0.000000 
0.038289 0.072720 -0.006751 
0.010560 0.072000 0.000000 
-0.025936 0.074400 0.009440 
0.002715 0.079200 0.002715 
-0.011492 0.074160 -0.031574 
-0.028077 0.070320 -0.033461 
0.017403 0.059040 0.047811 
0.007388 0.074160 -0.020297 
-0.021840 0.070320 0.037828 
0.049634 0.033600 -0.008752 
0.039693 0.014400 0.014446 
0.004727 0.001200 0.000833 
0.009851 0.000000 0.027063 
0.013800 0.074400 -0.023902 
0.002400 0.072000 0.000000 
0.019440 0.072720 0.033671 
-0.045103 0.043200 -0.026040 
0.033671 0.072720 0.019439 
0.007354 0.002400 -0.006171 
0.006788 0.072000 0.008089 
0.000000 -0.000480 0.021600 
0.025739 0.074160 0.021597 
0.002318 0.072000 0.000621 
-0.032705 0.059040 -0.038976 
0.016253 0.066000 -0.044654 
-0.033461 0.070320 -0.028077 
0.051053 0.052320 0.009001 
0.027063 0.000000 0.009850 
0.007920 0.073440 0.013718 
-0.033322 0.052320 0.039712 
-0.015599 0.073440 0.002751 
-0.052080 0.043200 0.000000 
-0.024992 0.072720 -0.029784 
0.041154 0.066000 0.023759 
0.003840 0.079200 0.000000 
0.003677 0.001200 -0.003085 
0.025920 0.052320 -0.044895 
0.023140 0.007200 -0.027578 
0.047812 0.059040 0.017401 
0.009002 0.052320 -0.051052 
0.025201 0.033600 0.043647 
-0.036770 0.024000 -0.030854 
0.006252 0.007200 0.035453 
0.004229 0.069600 -0.003548 
0.028077 0.070320 -0.033461 
-0.003751 0.074160 -0.021272 
-0.000435 0.064800 -0.001623 
-0.002715 0.079200 -0.002715 
0.001623 0.064800 -0.000435 
0.048714 0.052320 0.017730 
-0.004792 0.074400 0.027181 
-0.015599 0.001200 0.002751 
-0.045102 0.043200 0.026040 
-0.002078 0.072000 0.001200 
0.002715 0.079200 -0.002715 
0.009145 0.072000 0.005280 
-0.004800 0.002400 0.008314 
-0.021600 -0.000480 0.000000 
0.016417 0.024000 -0.045105 
-0.017741 0.074400 -0.021143 
0.051289 0.043200 -0.009044 
0.025440 -0.001200 0.000000 
-0.003709 0.079200 0.000994 
-0.003612 0.072000 -0.009923 
0.036403 0.066000 0.030545 
-0.001623 0.064800 0.000435 
0.009021 0.002400 0.003283 
0.018706 -0.000480 0.010800 
0.033090 0.074160 0.005834 
-0.001188 0.064800 0.001188 
-0.010560 0.072000 0.000000 
0.026041 0.043200 0.045102 
-0.032396 0.033600 0.038609 
-0.018706 -0.000480 -0.010800 
0.030854 0.024000 -0.036770 
-0.012720 -0.001200 -0.022032 
-0.046798 0.066000 -0.008251 
-0.002715 0.079200 -0.002715 
0.031574 0.074160 0.011491 
-0.033476 0.043200 0.039896 
0.000000 0.079200 0.003840 
0.001188 0.064800 -0.001188 
-0.005001 0.000000 -0.028362 
0.007388 -0.000480 -0.020297 
-0.003751 0.074160 0.021272 
-0.001697 0.072000 0.001697 
-0.008252 0.066000 -0.046798 
0.001697 0.072000 -0.001697 
0.016547 -0.000480 0.013884 
0.045105 0.024000 -0.016417 
-0.012134 0.073440 0.010182 
-0.007354 0.002400 0.006171 
-0.005187 0.069600 -0.001888 
0.004793 0.074400 0.027181 
0.016418 0.024000 0.045105 
0.023760 0.066000 -0.041154 
0.003612 0.072000 0.009923 
0.003709 0.079200 -0.000994 
-0.003709 0.079200 -0.000994 
0.009600 0.002400 0.000000 
0.027181 0.074400 0.004792 
-0.020297 -0.000480 -0.007387 
0.022062 0.000000 -0.018512 
0.003326 0.079200 -0.001920 
0.017238 0.033600 -0.047361 
0.002078 0.072000 -0.001200 
-0.038609 0.033600 -0.032396 
0.023141 0.007200 0.027577 
0.045103 0.043200 0.026039 
-0.003840 0.079200 0.000000 
0.004800 0.002400 -0.008314 
-0.002750 0.073440 0.015599 
-0.007920 0.001200 -0.013718 
0.005187 0.069600 -0.001888 
-0.003548 0.069600 0.004229 
0.043680 0.070320 0.000000 
-0.003326 0.079200 0.001920 
0.025921 0.052320 0.044894 
0.014400 0.000000 -0.024942 
0.002400 0.001200 -0.004157 
0.017813 0.043200 0.048939 
0.000000 0.001200 0.015840 
0.004157 0.001200 -0.002400 
-0.003548 0.069600 -0.004229 
-0.025920 0.052320 0.044895 
-0.002400 0.072000 0.000000 
0.010182 0.001200 -0.012134 
-0.005187 0.069600 0.001888 
-0.025053 -0.001200 0.004418 
-0.008751 0.033600 0.049634 
-0.041046 0.070320 -0.014939 
0.050400 0.033600 0.000000 
-0.004800 0.001200 0.000000 
0.039896 0.043200 -0.033476 
0.039693 0.014400 -0.014447 
0.033461 0.070320 -0.028077 
0.025441 0.059040 0.044063 
-0.013718 0.001200 -0.007920 
-0.003751 -0.000480 0.021272 
-0.027151 0.014400 -0.032358 
-0.002715 0.079200 0.002715 
0.005418 0.073440 -0.014885 
-0.000000 0.074400 -0.027600 
-0.027063 0.000000 -0.009850 
0.028362 0.000000 -0.005001 
-0.039896 0.043200 -0.033476 
0.012134 0.073440 0.010182 
-0.020297 0.074160 0.007388 
0.003548 0.069600 0.004229 
0.016353 -0.001200 0.019488 
0.033461 0.070320 0.028077 
-0.014885 0.001200 -0.005418 
-0.009600 0.002400 0.000000 
0.006788 0.072000 -0.008089 
-0.010182 0.001200 -0.012134 
0.007335 0.014400 -0.041598 
0.021840 0.070320 -0.037828 
0.036581 0.014400 0.021119 
-0.001667 0.002400 -0.009454 
0.010400 0.072000 -0.001834 
0.000621 0.072000 0.002318 
-0.041569 0.024000 0.024000 
0.005001 0.000000 -0.028362 
0.017731 0.052320 0.048713 
0.000000 0.001200 0.004800 
-0.048939 0.043200 -0.017812 
-0.020297 0.074160 -0.007387 
-0.013718 0.001200 0.007920 
-0.006788 0.072000 0.008089 
0.014447 0.014400 0.039692 
-0.000000 0.072720 -0.038880 
-0.001920 0.079200 0.003326 
0.041569 0.024000 -0.024000 
0.013718 0.073440 0.007920 
-0.014446 0.014400 0.039693 
-0.023760 0.066000 -0.041153 
-0.024942 0.000000 -0.014400 
-0.009043 0.043200 0.051289 
0.017238 0.033600 0.047360 
-0.002078 0.072000 -0.001200 
0.021121 0.014400 0.036581 
-0.001697 0.072000 -0.001697 
-0.000000 0.043200 -0.052080 
0.010800 -0.000480 0.018706 
-0.009145 0.072000 0.005280 
0.008090 0.072000 0.006788 
0.000959 0.069600 0.005436 
0.044895 0.052320 0.025919 
-0.009439 0.074400 0.025936 
0.000994 0.079200 0.003709 
-0.030853 0.024000 0.036770 
-0.008835 0.059040 -0.050107 
0.044654 0.066000 -0.016253 
-0.005436 0.069600 0.000959 
-0.000000 0.074160 -0.033600 
-0.009454 0.002400 -0.001667 
-0.000000 0.074160 -0.021600 
0.000000 0.073440 0.015840 
-0.002318 0.072000 -0.000621 
0.003085 0.001200 -0.003677 
-0.000000 0.066000 -0.047520 
-0.017238 0.033600 -0.047361 
0.014939 0.070320 -0.041046 
0.000994 0.079200 -0.003709 
-0.003677 0.001200 0.003085 
-0.008701 -0.001200 -0.023906 
-0.003709 0.079200 0.000994 
0.025440 0.059040 -0.044063 
-0.013884 -0.000480 -0.016546 
0.019440 0.072720 -0.033671 
-0.043016 0.070320 0.007585 
0.012313 0.007200 -0.033829 
0.037828 0.070320 0.021840 
-0.016800 0.074160 0.029099 
-0.022032 -0.001200 0.012720 
0.024941 0.000000 -0.014400 
0.004418 -0.001200 0.025053 
0.001920 0.079200 0.003326 
0.043648 0.033600 -0.025200 
-0.025054 -0.001200 -0.004417 
0.018706 -0.000480 -0.010800 
-0.010400 0.072000 0.001834 
0.036535 0.072720 -0.013298 
-0.038976 0.059040 0.032705 
0.008314 0.002400 -0.004800 
-0.006251 0.007200 -0.035453 
0.021598 0.074160 -0.025739 
-0.027181 0.074400 -0.004792 
-0.001888 0.069600 -0.005187 
-0.023760 0.066000 0.041154 
-0.008752 0.033600 -0.049634 
-0.002751 0.073440 -0.015599 
0.025739 0.074160 -0.021598 
0.003548 0.069600 -0.004229 
-0.021143 0.074400 0.017741 
-0.041598 0.014400 -0.007335 
0.000994 0.079200 0.003709 
-0.021272 -0.000480 0.003751 
-0.031177 0.007200 0.018000 
-0.044063 0.059040 -0.025440 
-0.012312 0.007200 0.033829 
0.007920 0.001200 0.013718 
0.001697 0.072000 0.001697 
0.023906 -0.001200 -0.008701 
0.047271 0.024000 -0.008335 
0.028800 0.000000 0.000000 
-0.028362 0.000000 0.005001 
0.014940 0.070320 0.041046 
0.023902 0.074400 -0.013800 
-0.043647 0.033600 0.025200 
0.036770 0.024000 0.030853 
0.041598 0.014400 0.007334 
-0.033090 0.074160 0.005835 
-0.028362 0.000000 -0.005001 
-0.000840 0.064800 0.001455 
-0.008089 0.072000 -0.006788 
0.014885 0.073440 0.005417 
-0.002318 0.072000 0.000621 
0.033477 0.043200 0.039895 
0.003751 -0.000480 -0.021272 
-0.007585 0.070320 -0.043016 
0.023906 -0.001200 0.008701 
0.033829 0.007200 0.012312 
0.043648 0.033600 0.025199 
-0.000000 0.052320 -0.051840 
0.032397 0.033600 0.038608 
-0.018706 0.074160 -0.010800 
0.004793 0.074400 -0.027181 
0.004781 0.069600 0.002760 
-0.000000 0.072000 -0.010560 
0.038976 0.059040 -0.032705 
-0.005436 0.069600 -0.000958 
0.003709 0.079200 0.000994 
0.000000 0.079200 0.003840 
0.046798 0.066000 -0.008252 
-0.000994 0.079200 0.003709 
-0.016546 0.074160 0.013884 
-0.006751 0.072720 0.038289 
-0.006752 0.072720 -0.038289 
-0.051840 0.052320 0.000000 
-0.041046 0.070320 0.014940 
-0.015840 0.073440 0.000000 
-0.003612 0.072000 0.009923 
0.000840 0.064800 -0.001455 
0.007354 0.002400 0.006171 
-0.008701 -0.001200 0.023906 
0.020298 -0.000480 0.007387 
0.033323 0.052320 0.039711 
-0.025920 0.052320 -0.044895 
-0.002400 0.001200 -0.004157 
0.016547 0.074160 0.013884 
0.038609 0.033600 -0.032397 
0.046798 0.066000 0.008251 
0.001642 0.001200 -0.004511 
0.020298 0.074160 0.007387 
-0.036581 0.014400 -0.021120 
0.048714 0.052320 -0.017730 
-0.004157 0.001200 0.002400 
-0.051052 0.052320 -0.009002 
-0.014885 0.001200 0.005418 
-0.026040 0.043200 0.045103 
0.013884 0.074160 0.016546 
0.036581 0.014400 -0.021120 
-0.032357 0.014400 0.027152 
-0.000000 -0.001200 -0.025440 
0.024000 0.024000 -0.041569 
0.044063 0.059040 -0.025440 
0.013298 0.072720 -0.036535 
-0.007920 0.073440 0.013718 
0.029784 0.072720 0.024991 
0.008701 -0.001200 0.023906 
-0.028077 0.070320 0.033461 
-0.000621 0.072000 -0.002318 
-0.014940 0.070320 -0.041046 
-0.001188 0.064800 -0.001188 
0.008335 0.024000 -0.047271 
-0.048714 0.052320 -0.017730 
-0.000994 0.079200 -0.003709 
0.005418 0.001200 -0.014885 
-0.022032 -0.001200 -0.012720 
-0.025936 0.074400 -0.009440 
-0.011492 0.074160 0.031574 
-0.000000 0.002400 -0.009600 
0.009145 0.072000 -0.005280 
0.027181 0.074400 -0.004793 
-0.015599 0.001200 -0.002750 
-0.039692 0.014400 0.014447 
-0.003326 0.079200 -0.001920 
0.009850 0.000000 -0.027063 
-0.039712 0.052320 -0.033322 
-0.017730 0.052320 0.048714 
0.021272 -0.000480 -0.003751 
-0.018000 0.007200 0.031177 
-0.002760 0.069600 0.004780 
-0.016253 0.066000 -0.044654 
0.001188 0.064800 0.001188 
0.051289 0.043200 0.009043 
-0.016252 0.066000 0.044654 
0.018513 0.000000 0.022062 
-0.029784 0.072720 -0.024991 
0.024992 0.072720 -0.029784 
0.026040 0.043200 -0.045103 
0.014447 0.014400 -0.039693 
-0.032705 0.059040 0.038977 
-0.003326 0.079200 0.001920 
-0.009001 0.052320 0.051052 
-0.043680 0.070320 0.000000 
-0.007335 0.014400 -0.041598 
0.038609 0.033600 0.032396 
-0.038608 0.033600 0.032397 
-0.021143 0.074400 -0.017741 
0.018000 0.007200 0.031177 
0.016800 0.074160 -0.029098 
-0.029099 0.074160 -0.016800 
0.038880 0.072720 0.000000 
-0.041154 0.066000 -0.023760 
-0.015840 0.001200 0.000000 
0.000994 0.079200 -0.003709 
-0.009454 0.002400 0.001667 
-0.005835 0.074160 -0.033090 
-0.009850 0.000000 0.027063 
-0.048713 0.052320 0.017731 
-0.010400 0.072000 -0.001834 
-0.037828 0.070320 0.021840 
-0.014885 0.073440 -0.005418 
0.002078 0.072000 0.001200 
-0.017237 0.033600 0.047361 
-0.000834 0.001200 -0.004727 
0.013884 0.074160 -0.016547 
-0.004229 0.069600 -0.003548 
-0.027578 0.007200 -0.023140 
-0.000435 0.064800 0.001623 
0.000000 0.064800 0.001680 
-0.000000 0.073440 -0.015840 
0.006751 0.072720 -0.038289 
-0.000833 0.001200 0.004727 
0.033090 0.074160 -0.005835 
-0.004418 -0.001200 -0.025053 
-0.035453 0.007200 0.006252 
0.029099 0.074160 0.016800 
-0.005417 0.001200 0.014885 
-0.013800 0.074400 0.023903 
0.027151 0.014400 -0.032358 
0.005418 0.073440 0.014885 
0.004511 0.001200 -0.001642 
0.010182 0.073440 0.012134 
0.005834 0.074160 -0.033090 
-0.030545 0.066000 0.036403 
-0.016546 -0.000480 0.013884 
0.008089 0.072000 -0.006788 
0.001667 0.002400 -0.009454 
0.003326 0.079200 0.001920 
-0.022062 0.000000 -0.018512 
0.004511 0.001200 0.001642 
-0.047271 0.024000 0.008335 
-0.019488 -0.001200 0.016353 
-0.009850 0.000000 -0.027063 
-0.047812 0.059040 -0.017402 
-0.047811 0.059040 0.017402 
-0.048939 0.043200 0.017813 
0.039896 0.043200 0.033476 
0.032706 0.059040 0.038976 
0.008314 0.002400 0.004800 
0.032358 0.014400 -0.027151 
-0.000000 0.059040 -0.050880 
-0.028800 0.000000 0.000000 
-0.033322 0.052320 -0.039712 
-0.031574 0.074160 0.011492 
0.044895 0.052320 -0.025920 
-0.009923 0.072000 0.003612 
-0.003085 0.001200 0.003677 
0.000000 0.074400 0.027600 
-0.013800 0.074400 -0.023902 
-0.009923 0.072000 -0.003612 
0.002751 0.073440 0.015599 
-0.001680 0.064800 0.000000 
-0.014400 0.000000 0.024942 
0.015599 0.073440 0.002750 
0.050880 0.059040 0.000000 
0.007585 0.070320 -0.043016 
0.001200 0.072000 0.002078 
-0.005418 0.001200 -0.014885 
-0.017813 0.043200 -0.048939 
0.002760 0.069600 -0.004780 
0.012313 0.007200 0.033829 
-0.031177 0.007200 -0.018000 
0.005436 0.069600 -0.000959 
-0.023141 0.007200 -0.027578 
0.001888 0.069600 0.005187 
0.005280 0.072000 -0.009145 
-0.018000 0.007200 -0.031177 
0.000000 0.002400 0.009600 
-0.000958 0.069600 0.005436 
0.000000 0.072000 0.010560 
0.047361 0.033600 -0.017238 
0.009440 0.074400 0.025935 
-0.016800 0.074160 -0.029098 
-0.033477 0.043200 -0.039895 
0.045106 0.024000 0.016416 
0.031574 0.074160 -0.011492 
-0.004793 0.074400 -0.027181 
0.003751 0.074160 -0.021272 
0.002751 0.073440 -0.015599 
0.025200 0.033600 -0.043648 
0.013884 -0.000480 0.016546 
-0.006251 0.007200 0.035453 
-0.051289 0.043200 0.009044 
-0.007354 0.002400 -0.006171 
-0.025200 0.033600 0.043648 
-0.016417 0.024000 -0.045105 
-0.021598 0.074160 -0.025739 
0.021143 0.074400 0.017741 
-0.023140 0.007200 0.027578 
-0.007920 0.001200 0.013718 
0.021272 -0.000480 0.003750 
-0.025739 0.074160 -0.021597 
-0.041598 0.014400 0.007335 
0.000000 0.074160 0.033600 
0.036402 0.066000 -0.030545 
-0.010800 -0.000480 0.018706 
0.012134 0.001200 -0.010182 
-0.050880 0.059040 0.000000 
-0.001455 0.064800 0.000840 
-0.001920 0.079200 -0.003326 
-0.021600 0.074160 0.000000 
-0.000000 -0.000480 -0.021600 
0.036535 0.072720 0.013297 
-0.005834 0.074160 0.033090 
0.007388 0.074160 0.020297 
0.016352 -0.001200 -0.019488 
0.013298 0.072720 0.036535 
-0.004780 0.069600 -0.002760 
0.022062 0.000000 0.018512 
-0.029784 0.072720 0.024992 
-0.016352 -0.001200 0.019488 
-0.010182 0.001200 0.012134 
-0.041153 0.066000 0.023760 
-0.014447 0.014400 -0.039692 
0.036000 0.007200 0.000000 
0.002751 0.001200 -0.015599 
0.009923 0.072000 -0.003612 
-0.037828 0.070320 -0.021840 
0.021272 0.074160 0.003750 
0.033671 0.072720 -0.019440 
0.012720 -0.001200 -0.022032 
-0.000000 0.014400 -0.042240 
-0.001623 0.064800 -0.000435 
0.001642 0.001200 0.004510 
0.003709 0.079200 0.000994 
0.049634 0.033600 0.008751 
0.021598 0.074160 0.025739 
0.000000 0.000000 0.028800 
-0.039693 0.014400 -0.014447 
0.031177 0.007200 0.018000 
0.012720 -0.001200 0.022031 
0.004780 0.069600 -0.002760 
0.027578 0.007200 -0.023140 
0.021840 0.070320 0.037828 
0.000834 0.001200 0.004727 
0.017402 0.059040 -0.047812 
-0.044894 0.052320 0.025920 
-0.006171 0.002400 -0.007354 
-0.007388 -0.000480 -0.020297 
0.010800 -0.000480 -0.018706 
0.006752 0.072720 0.038289 
0.008252 0.066000 0.046798 
-0.033461 0.070320 0.028077 
0.000001 0.024000 0.048000 
-0.021272 -0.000480 -0.003751 
0.000435 0.064800 -0.001623 
-0.050107 0.059040 -0.008835 
0.037828 0.070320 -0.021840 
0.047812 0.059040 -0.017402 
0.003751 -0.000480 0.021272 
-0.025440 0.059040 0.044064 
-0.000000 0.033600 -0.050400 
-0.008335 0.024000 0.047271 
-0.004727 0.001200 -0.000833 
-0.021272 0.074160 -0.003751 
-0.008335 0.024000 -0.047271 
0.041570 0.024000 0.023999 
-0.001200 0.072000 -0.002078 
-0.025440 -0.001200 0.000000 
0.029784 0.072720 -0.024992 
-0.033829 0.007200 0.012313 
-0.009044 0.043200 -0.051289 
0.015599 0.001200 0.002750 
-0.001200 0.072000 0.002078 
-0.012134 0.001200 0.010182 
-0.008314 0.002400 0.004800 
0.043016 0.070320 0.007584 
0.001623 0.064800 0.000435 
-0.007920 0.073440 -0.013718 
-0.005520 0.069600 0.000000 
0.000001 0.070320 0.043680 
-0.036402 0.066000 0.030546 
0.007388 -0.000480 0.020297 
0.045103 0.043200 -0.026040 
-0.035453 0.007200 -0.006251 
-0.005280 0.072000 -0.009145 
0.023761 0.066000 0.041153 
0.021120 0.014400 -0.036581 
-0.000000 0.024000 -0.048000 
-0.017731 0.052320 -0.048714 
0.008752 0.033600 -0.049634 
0.007335 0.014400 0.041598 
-0.021597 0.074160 0.025739 
-0.012134 0.073440 -0.010182 
0.003284 0.002400 0.009021 
0.048939 0.043200 0.017812 
-0.003326 0.079200 -0.001920 
0.021600 -0.000480 0.000000 
0.016253 0.066000 0.044654 
-0.018706 0.074160 0.010800 
-0.050107 0.059040 0.008836 
-0.048000 0.024000 0.000000 
-0.006171 0.002400 0.007354 
0.014400 0.000000 0.024941 
0.002715 0.079200 -0.002715 
-0.003709 0.079200 -0.000994 
-0.000000 0.001200 -0.004800 
-0.033671 0.072720 0.019440 
-0.031574 0.074160 -0.011492 
-0.004229 0.069600 0.003548 
0.009021 0.002400 -0.003283 
-0.013884 -0.000480 0.016547 
-0.029098 0.074160 0.016800 
0.000833 0.001200 -0.004727 
0.030546 0.066000 0.036402 
-0.016547 -0.000480 -0.013884 
0.003612 0.072000 -0.009923 
-0.014400 0.000000 -0.024941 
0.001200 0.072000 -0.002078 
0.021143 0.074400 -0.017741 
-0.047520 0.066000 0.000000 
0.033829 0.007200 -0.012313 
0.025053 -0.001200 -0.004418 
0.000000 0.072000 0.002400 
-0.000000 0.079200 -0.003840 
0.015840 0.073440 0.000000 
-0.016547 0.074160 -0.013884 
-0.003677 0.001200 -0.003085 
0.008336 0.024000 0.047271 
-0.022062 0.000000 0.018513 
-0.036770 0.024000 0.030854 
0.003677 0.001200 0.003085 
-0.009145 0.072000 -0.005280 
0.005001 0.000000 0.028362 
-0.009021 0.002400 -0.003283 
-0.004511 0.001200 0.001642 
0.009454 0.002400 0.001667 
-0.047361 0.033600 -0.017237 
-0.001888 0.069600 0.005187 
-0.021120 0.014400 0.036581 
-0.027181 0.074400 0.004793 
0.001455 0.064800 0.000840 
-0.023906 -0.001200 0.008701 
0.004157 0.001200 0.002400 
-0.038289 0.072720 0.006752 
-0.001834 0.072000 0.010400 
0.004727 0.001200 -0.000834 
-0.023902 0.074400 0.013800 
-0.017402 0.059040 -0.047812 
0.027063 0.000000 -0.009850 
-0.004800 0.002400 -0.008314 
-0.030546 0.066000 -0.036402 
-0.044063 0.059040 0.025440 
-0.001642 0.001200 0.004511 
0.001455 0.064800 -0.000840 
-0.000840 0.064800 -0.001455 
0.006251 0.007200 -0.035453 
-0.010800 0.074160 0.018706 
0.016547 0.074160 -0.013884 
0.047271 0.024000 0.008334 
-0.000621 0.072000 0.002318 
0.050107 0.059040 -0.008835 
-0.021272 0.074160 0.003751 
0.011492 0.074160 0.031573 
-0.036000 0.007200 0.000000 
-0.002400 0.001200 0.004157 
0.000000 0.077760 0.000000 
0.000000 0.014400 0.042240 
-0.004511 0.001200 -0.001642 
-0.025440 0.059040 -0.044063 
0.025936 0.074400 -0.009440 
-0.042240 0.014400 0.000000 
-0.013718 0.073440 -0.007920 
0.003326 0.079200 0.001920 
-0.003283 0.002400 0.009021 
0.035453 0.007200 -0.006251 
0.027578 0.007200 0.023140 
0.028362 0.000000 0.005001 
-0.004780 0.069600 0.002760 
0.014885 0.001200 -0.005418 
-0.009002 0.052320 -0.051052 
-0.032397 0.033600 -0.038608 
-0.024000 0.024000 -0.041569 
-0.033600 0.074160 0.000000 
-0.018512 0.000000 0.022062 
-0.010800 -0.000480 -0.018706 
-0.014885 0.073440 0.005418 
-0.006788 0.072000 -0.008089 
0.003326 0.079200 -0.001920 
-0.000994 0.079200 -0.003709 
0.013800 0.074400 0.023902 
0.025054 -0.001200 0.004417 
0.008752 0.033600 0.049634 
-0.051289 0.043200 -0.009043 
-0.003283 0.002400 -0.009021 
0.001888 0.069600 -0.005187 
0.001680 0.064800 0.000000 
-0.000000 0.064800 -0.001680 
0.024942 0.000000 0.014400 
-0.005280 0.072000 0.009145 
0.010800 0.074160 0.018706 
-0.044895 0.052320 -0.025920 
-0.018706 -0.000480 0.010800 
0.002751 0.001200 0.015599 
0.000621 0.072000 -0.002318 
0.038289 0.072720 0.006751 
-0.024000 0.024000 0.041570 
0.015599 0.001200 -0.002751 
-0.019440 0.072720 -0.033671 
0.004418 -0.001200 -0.025053 
0.022032 -0.001200 0.012720 
0.009923 0.072000 0.003612 
0.012134 0.073440 -0.010182 
-0.008835 0.059040 0.050107 
0.001920 0.079200 -0.003326 
0.041046 0.070320 -0.014940 
0.013718 0.073440 -0.007920 
0.020297 -0.000480 -0.007388 
-0.019440 0.072720 0.033671 
-0.013297 0.072720 0.036535 
0.018706 0.074160 -0.010800 
0.009454 0.002400 -0.001667 
-0.000994 0.079200 0.003709 
0.047361 0.033600 0.017237 
-0.024991 0.072720 0.029784 
0.039712 0.052320 0.033322 
-0.036581 0.014400 0.021120 
0.021272 0.074160 -0.003751 
-0.002750 0.001200 0.015599 
0.001920 0.079200 0.003326 
0.008836 0.059040 0.050107 
-0.017402 0.059040 0.047812 
-0.044654 0.066000 0.016253 
-0.027577 0.007200 0.023141 
-0.001455 0.064800 -0.000840 
-0.017741 0.074400 0.021143 
0.003840 0.079200 0.000000 
0.033322 0.052320 -0.039712 
0.008252 0.066000 -0.046798 
0.044655 0.066000 0.016252 
-0.004727 0.001200 0.000834 
-0.021120 0.014400 -0.036581 
0.016547 -0.000480 -0.013884 
0.050107 0.059040 0.008834 
0.009043 0.043200 -0.051289 
0.008701 -0.001200 -0.023906 
-0.020297 -0.000480 0.007388 
0.035453 0.007200 0.006251 
-0.003840 0.079200 0.000000 
-0.002715 0.079200 0.002715 
-0.036535 0.072720 0.013298 
0.010182 0.001200 0.012134 
-0.001920 0.079200 -0.003326 
-0.007584 0.070320 0.043016 
-0.007387 0.074160 0.020297 
0.027600 0.074400 0.000000 
0.039712 0.052320 -0.033322 
0.000959 0.069600 -0.005436 
0.015599 0.073440 -0.002751 
-0.005418 0.073440 -0.014885 
0.000840 0.064800 0.001455 
0.002318 0.072000 -0.000621 
0.005436 0.069600 0.000958 
0.017741 0.074400 -0.021143 
0.047520 0.066000 0.000000 
-0.019488 -0.001200 -0.016352 
-0.001834 0.072000 -0.010400 
0.000000 0.074160 0.021600 
-0.036403 0.066000 -0.030545 
-0.003085 0.001200 -0.003677 
-0.014939 0.070320 0.041046 
-0.000000 0.001200 -0.015840 
0.022032 -0.001200 -0.012720 
0.000000 0.000000 0.000000 
0.000001 0.033600 0.050400 
0.032705 0.059040 -0.038976 
-0.010182 0.073440 -0.012134 
0.001834 0.072000 -0.010400 
-0.033090 0.074160 -0.005834 
-0.013884 0.074160 -0.016546 
0.038977 0.059040 0.032704 
-0.038880 0.072720 0.000000 
0.011492 0.074160 -0.031574 
-0.016417 0.024000 0.045105 
0.051052 0.052320 -0.009002 
-0.047271 0.024000 -0.008335 
-0.032358 0.014400 -0.027151 
-0.008251 0.066000 0.046798 
0.025936 0.074400 0.009439 
0.013884 -0.000480 -0.016547 
0.041154 0.066000 -0.023760 
-0.038976 0.059040 -0.032705 
-0.039711 0.052320 0.033322 
-0.001667 0.002400 0.009454 
0.013718 0.001200 -0.007920 
-0.039895 0.043200 0.033477 
0.024992 0.072720 0.029784 
-0.000000 0.070320 -0.043680 
-0.009021 0.002400 0.003283 
0.001834 0.072000 0.010400 
0.001667 0.002400 0.009454 
0.005520 0.069600 0.000000 
0.000000 -0.001200 0.025440 
0.002400 0.001200 0.004157 
0.018000 0.007200 -0.031177 
0.017741 0.074400 0.021143 
-0.036535 0.072720 -0.013298 
0.006171 0.002400 0.007354 
-0.002760 0.069600 -0.004780 
0.005280 0.072000 0.009145 
-0.012720 -0.001200 0.022032 
-0.004417 -0.001200 0.025054 
0.003751 0.074160 0.021272 
0.000001 0.066000 0.047520 
-0.000000 0.079200 -0.003840 
0.030545 0.066000 -0.036402 
0.007920 0.001200 -0.013718 
-0.025739 0.074160 0.021598 
0.004800 0.002400 0.008314 
-0.049634 0.033600 0.008752 
-0.000000 0.007200 -0.036000 
0.000001 0.043200 0.052080 
-0.038289 0.072720 -0.006751 
-0.045105 0.024000 -0.016417 
-0.007334 0.014400 0.041598 
-0.009440 0.074400 -0.025936 
-0.016353 -0.001200 -0.019488 
-0.017812 0.043200 0.048939 
0.010400 0.072000 0.001834 
0.009044 0.043200 0.051289 
0.020297 0.074160 -0.007388 
-0.026040 0.043200 -0.045102 
0.002715 0.079200 0.002715 
0.044064 0.059040 0.025439 
0.018706 0.074160 0.010800 
0.012134 0.001200 0.010182 
0.003283 0.002400 -0.009021 
0.000000 0.069600 0.005520 
0.010800 0.074160 -0.018706 
-0.025200 0.033600 -0.043648 
-0.010800 0.074160 -0.018706 
-0.002751 0.001200 -0.015599 
0.041046 0.070320 0.014939 
0.004229 0.069600 0.003548 
0.004800 0.001200 0.000000 
-0.043016 0.070320 -0.007585 
0.010182 0.073440 -0.012134 
0.013718 0.001200 0.007920 
-0.007388 0.074160 -0.020297 
0.006171 0.002400 -0.007354 
0.015840 0.001200 0.000000 
0.033600 0.074160 0.000000 
-0.045105 0.024000 0.016417 
0.029098 0.074160 -0.016800 
-0.024941 0.000000 0.014400 
-0.043648 0.033600 -0.025200 
-0.000000 0.069600 -0.005520 
0.007585 0.070320 0.043016 
-0.001642 0.001200 -0.004511 
0.031177 0.007200 -0.018000 
0.008835 0.059040 -0.050107 
0.000000 0.007200 0.036000 
0.016800 0.074160 0.029098 
-0.013884 0.074160 0.016547 
0.000435 0.064800 0.001623 
0.000000 0.067200 0.000000 
0.019488 -0.001200 -0.016352 
0.002760 0.069600 0.004780 
-0.000000 0.000000 -0.028800 
0.030854 0.024000 0.036770 
-0.008089 0.072000 0.006788 
0.017812 0.043200 -0.048939 
-0.033671 0.072720 -0.019440 
0.003709 0.079200 -0.000994 
-0.051052 0.052320 0.009002 
0.007920 0.073440 -0.013718 
-0.013718 0.073440 0.007920 
0.024001 0.024000 0.041569 
-0.005417 0.073440 0.014885 
0.043016 0.070320 -0.007585 
-0.041569 0.024000 -0.024000 
0.017730 0.052320 -0.048714 
0.051840 0.052320 0.000000 
0.042240 0.014400 0.000000 
-0.046798 0.066000 0.008252 
0.014885 0.073440 -0.005418 
0.021600 0.074160 0.000000 
0.048939 0.043200 -0.017812 
0.032396 0.033600 -0.038609 
-0.012313 0.007200 -0.033829 
-0.001920 0.079200 0.003326 
0.048000 0.024000 0.000000 
-0.027600 0.074400 0.000000 
0.052080 0.043200 0.000000 
-0.000000 0.072000 -0.002400 
-0.010182 0.073440 0.012134 
-0.012134 0.001200 -0.010182 
-0.030854 0.024000 -0.036770 
-0.003751 -0.000480 -0.021272 
-0.044654 0.066000 -0.016253 
0.009003 0.052320 0.051052 
-0.049634 0.033600 -0.008752 
-0.023902 0.074400 -0.013800 
-0.008314 0.002400 -0.004800 
0.003085 0.001200 0.003677 
-0.013298 0.072720 -0.036535 
0.019488 -0.001200 0.016352 
0.000001 0.052320 0.051840 
-0.005001 0.000000 0.028362 
0.000000 0.072720 0.038880 
-0.027151 0.014400 0.032358 
0.014885 0.001200 0.005417 
0.018512 0.000000 -0.022062 
-0.023906 -0.001200 -0.008701 
0.032358 0.014400 0.027151 
