0.019112 0.079372 -0.005702 
0.007963 0.041353 -0.015792 
0.012637 -0.069592 -0.005080 
-0.026100 -0.000204 -0.001040 
0.021589 -0.082392 0.003521 
0.006790 -0.022538 0.012947 
-0.023900 0.025050 0.009180 
0.018004 -0.065930 0.000734 
-0.019564 0.046454 -0.002407 
0.019301 0.079162 0.003115 
0.013107 0.088713 -0.002414 
0.002837 -0.000204 0.019176 
0.019907 0.089226 0.000748 
-0.008771 -0.043579 0.007667 
0.002522 -0.058558 0.005871 
-0.004847 0.043277 -0.019430 
0.021118 -0.088775 -0.002260 
0.025004 -0.083690 -0.001829 
0.018370 0.068999 -0.003613 
-0.023704 0.024994 -0.012582 
0.006579 -0.000204 -0.009510 
0.018690 -0.076500 0.003563 
0.013637 0.088354 0.000145 
0.020513 0.085570 0.001623 
0.022449 0.088933 0.000793 
0.021083 -0.074828 0.000413 
-0.018246 0.046045 -0.012390 
0.022375 0.085584 0.000131 
0.016676 -0.065510 0.003380 
0.021118 0.090000 0.000560 
0.022685 -0.080096 0.002917 
-0.000313 0.075299 -0.011599 
0.019878 0.089696 -0.003567 
-0.012532 0.044248 0.013245 
0.009095 -0.022676 0.002931 
0.014344 -0.067695 -0.005441 
0.025006 -0.083121 -0.001880 
0.025241 -0.083069 0.002478 
0.014793 -0.054797 -0.004381 
0.015900 -0.080190 0.003962 
0.024754 -0.083877 0.003782 
0.021834 -0.089893 0.003838 
0.016303 -0.079876 0.004448 
-0.019167 -0.024261 -0.010275 
0.020230 0.086476 -0.005486 
0.021451 0.089488 -0.003507 
0.005772 -0.000204 0.014255 
0.009406 -0.069592 -0.003871 
-0.017948 0.045995 0.007749 
0.021866 0.085461 0.001078 
-0.000024 -0.022578 0.017948 
0.023603 -0.086540 -0.001533 
0.015660 0.087307 0.001930 
0.022564 0.089140 -0.002015 
0.024350 -0.083877 -0.001454 
0.020154 -0.074456 0.002696 
-0.001499 0.076123 -0.009510 
-0.016236 0.045287 0.011498 
-0.000287 -0.000204 -0.018775 
-0.005970 -0.023435 -0.017453 
0.007060 0.084130 0.001818 
-0.009909 0.023306 0.018995 
0.002813 -0.058088 0.007297 
0.018009 0.087167 -0.006120 
0.020462 -0.085154 -0.002458 
-0.003889 0.060424 0.010142 
0.004945 0.022483 0.017242 
0.010764 -0.069813 -0.004954 
0.007542 -0.055425 0.007686 
0.021118 -0.090000 0.003380 
-0.013533 -0.024036 -0.015568 
0.006016 0.084768 -0.002778 
0.007404 0.022583 0.012245 
0.020246 -0.085162 0.003895 
0.021308 -0.088993 0.003859 
-0.007546 0.061840 0.009008 
0.022198 -0.088285 -0.001982 
0.002137 0.074082 -0.012330 
0.015523 0.087863 -0.005880 
0.025479 -0.083645 0.003398 
0.011080 -0.040667 -0.006226 
0.019553 -0.085866 0.004014 
0.020772 0.090000 -0.002589 
0.011830 -0.069592 0.005394 
0.021255 -0.088295 -0.002407 
0.012443 0.056347 0.009407 
0.022641 0.089278 -0.002878 
0.023542 0.090000 0.000560 
0.004156 0.073265 0.007005 
-0.012267 -0.000204 0.020077 
0.023263 -0.085499 0.003819 
0.001026 0.059283 -0.016846 
0.017080 0.069184 0.005394 
-0.007866 -0.042818 -0.010757 
0.022829 -0.080152 -0.002281 
-0.016051 -0.023946 0.014651 
0.004439 -0.000204 -0.015764 
0.015251 0.080437 0.004372 
0.025448 -0.083105 0.000104 
0.000517 0.023025 -0.019365 
-0.023897 -0.000204 0.013898 
0.008044 -0.022835 -0.008102 
0.022727 0.090000 -0.002485 
0.006242 -0.040473 -0.012273 
0.021018 0.088989 0.000807 
0.020656 -0.089441 0.000429 
0.019907 0.090000 -0.001454 
0.011021 -0.070817 0.004588 
0.023743 -0.083094 -0.001606 
0.022734 -0.089184 -0.001857 
0.008071 0.057695 -0.015998 
-0.010169 0.063054 -0.011362 
-0.002214 0.076512 -0.003009 
0.009690 -0.070425 0.000589 
0.000721 -0.041507 -0.013199 
0.004268 -0.022456 0.016836 
0.022025 -0.080294 -0.002160 
0.023295 -0.080192 0.002385 
0.023045 -0.080018 0.002754 
0.018450 0.089707 -0.000212 
0.011513 -0.053961 0.006734 
-0.008300 -0.043188 0.010130 
0.000139 0.022592 0.019112 
0.021327 -0.082680 -0.002321 
-0.000690 0.075714 0.003782 
0.019331 -0.085239 -0.002776 
0.020334 -0.074457 0.002684 
0.007495 0.083998 -0.008545 
0.018458 0.089919 -0.002969 
0.018130 0.086297 0.002179 
0.019072 0.089513 0.000344 
0.005264 -0.040074 0.012441 
0.022284 0.089060 -0.001058 
0.016676 0.069184 -0.008302 
0.015900 -0.079312 -0.003575 
0.014432 -0.067258 0.004453 
-0.011154 0.063537 -0.002884 
0.009233 0.022544 0.001308 
0.020642 -0.089128 0.003423 
0.011053 0.041113 0.008088 
-0.025268 0.025221 -0.001741 
0.017361 -0.065894 -0.004491 
0.011298 -0.070385 0.005327 
0.012637 0.070817 -0.012733 
0.021523 0.090000 -0.002663 
0.013553 0.088627 -0.004755 
0.025965 -0.083877 0.002574 
0.023473 -0.080399 -0.002019 
-0.020358 -0.024534 -0.000430 
0.007446 0.022612 -0.010337 
0.012627 -0.053761 0.006544 
0.007277 0.072411 -0.013422 
0.015244 0.069768 -0.011203 
0.020463 -0.087921 -0.002297 
-0.008689 0.062202 -0.014182 
0.006130 -0.022776 -0.013583 
-0.016483 0.045455 -0.015932 
0.005234 0.022727 -0.016417 
0.023215 0.090000 0.000264 
0.024429 -0.082921 -0.001917 
0.023803 -0.086402 0.004013 
0.009321 0.083119 -0.009001 
-0.003293 0.042466 0.015529 
-0.024924 -0.000204 0.009824 
0.023256 0.088995 0.000386 
-0.009599 -0.042835 -0.007932 
-0.001112 -0.041177 0.012788 
0.008096 -0.000204 0.002805 
0.005026 -0.057314 -0.007975 
0.020311 0.090000 -0.000246 
0.001932 -0.022856 -0.016194 
0.019004 -0.086076 0.003595 
0.011327 -0.054383 -0.008180 
-0.020885 -0.000204 0.016269 
0.004703 0.058053 0.011106 
0.014847 -0.079771 0.000623 
0.000989 -0.057440 -0.005573 
0.006574 0.084553 -0.007106 
0.015441 0.056070 -0.003048 
0.018292 -0.066326 -0.003065 
-0.009427 0.062820 0.005845 
0.020462 -0.074565 0.002588 
0.010112 0.041023 -0.010603 
0.021857 -0.089164 -0.002318 
0.022142 -0.088287 0.003774 
0.018312 0.079844 -0.007767 
0.017338 -0.079141 -0.003439 
0.010535 0.082264 0.004241 
0.026100 -0.083877 0.000090 
0.022734 0.090000 -0.000246 
0.002535 -0.057535 -0.007429 
0.018696 0.069184 0.000962 
-0.002306 -0.000204 0.020700 
-0.008650 -0.023199 0.017614 
0.013051 0.081867 -0.009643 
0.008278 0.083365 0.003664 
0.020582 0.090000 0.000241 
-0.019156 -0.024565 0.009234 
0.020406 -0.074691 -0.003083 
0.023682 -0.080322 0.000195 
0.021167 -0.075028 -0.002379 
-0.018462 -0.000204 -0.017969 
0.016917 -0.065457 0.003427 
0.019984 0.090000 -0.001920 
-0.005608 0.060976 -0.015286 
0.003660 -0.057276 0.007813 
0.024834 -0.082850 0.003155 
0.019349 -0.074794 -0.003267 
0.018437 -0.076906 -0.003524 
0.014836 0.056139 0.007280 
0.021029 0.085757 -0.003083 
0.001073 -0.058235 0.000399 
0.020655 0.079005 0.001937 
0.014244 0.088348 -0.005642 
0.016750 0.080641 -0.008999 
0.012040 0.040942 -0.001022 
0.009579 -0.039974 0.009560 
0.013291 -0.053851 0.005801 
-0.022517 -0.000204 -0.016093 
-0.021747 0.024755 -0.016643 
-0.019091 0.024213 0.015544 
0.017080 -0.065510 0.003380 
0.018092 0.089930 -0.002075 
-0.008881 0.023684 -0.020700 
0.011525 -0.040320 0.002263 
0.009520 -0.040446 -0.010346 
0.016869 -0.079149 0.004362 
0.020841 0.086029 -0.004481 
0.020087 -0.088595 0.000472 
0.019980 0.090000 -0.000854 
0.020311 0.090000 -0.002260 
-0.018415 -0.024336 0.012695 
0.020461 0.079133 -0.002682 
0.007979 -0.039857 0.011816 
-0.010128 -0.043403 0.000051 
0.024230 -0.083033 0.003470 
0.009609 0.040946 0.012537 
0.001011 0.074709 0.006286 
0.014762 -0.079019 -0.002974 
0.018985 0.089846 -0.003465 
0.014323 0.087930 0.001395 
0.005926 0.041129 0.014663 
0.022911 0.089008 -0.000219 
-0.024520 -0.000204 -0.011927 
0.025562 -0.083877 -0.001857 
0.023193 0.090000 -0.001028 
0.014708 -0.054329 0.001363 
0.020866 0.079177 0.000191 
0.008227 -0.055803 -0.008753 
-0.009622 -0.000204 -0.020194 
0.023542 0.090000 -0.001857 
0.013596 -0.054408 -0.006999 
0.022000 0.085594 -0.001370 
0.018396 -0.084899 -0.002491 
0.022536 0.090000 0.000765 
0.003667 0.042044 -0.018324 
-0.012843 0.044586 -0.017447 
0.013538 0.056168 -0.010021 
-0.006751 -0.042515 0.011365 
0.015869 -0.065919 -0.005080 
0.018229 -0.085600 0.000559 
-0.017264 -0.024205 -0.013969 
0.011157 0.070865 0.007211 
0.023040 -0.085682 -0.001704 
0.011633 0.056691 -0.014014 
-0.022532 0.024719 0.013291 
0.022734 -0.089184 0.003782 
0.015291 0.056332 0.003692 
-0.017738 0.024373 -0.018460 
0.018660 0.068987 0.003615 
-0.004701 -0.042601 -0.011855 
0.018199 0.089829 -0.001018 
