-27.312756 30.126040 32.469673 
-9.588623 21.704857 -39.317646 
12.867494 39.635490 32.893223 
24.097340 31.271156 -30.865334 
6.605286 127.889885 -6.507769 
48.373127 43.379402 -6.096788 
29.138636 20.244745 38.347385 
-44.867844 8.289245 26.776842 
-43.279980 60.538895 -7.908048 
44.315182 66.235466 5.614989 
-0.603457 0.843459 9.168766 
-30.916466 1.067615 -1.754839 
-35.969868 1.085749 36.841320 
21.021074 98.595551 -38.617996 
44.096649 41.397671 -12.883892 
13.569713 122.846794 -19.711597 
33.944077 36.008045 -16.816746 
1.749613 117.854736 0.334976 
-46.958462 15.627721 19.104231 
-37.165134 81.455208 16.153074 
-36.421677 0.961096 1.480974 
-22.417746 7.716169 45.053165 
40.107334 51.051327 -21.239307 
14.448310 120.127724 -20.460398 
-1.396994 141.380234 -17.173527 
-44.256149 17.099054 -9.026538 
7.444716 110.329796 -38.692509 
-34.229481 14.489320 40.422783 
-13.677280 57.342670 -39.841545 
-33.891167 51.672745 -20.538736 
15.365896 118.411995 -27.730717 
-17.214354 54.200527 23.374130 
-28.916895 64.439987 -25.162533 
26.094917 10.942178 40.329334 
42.945389 29.823795 1.116244 
26.986477 21.744860 -27.171122 
-36.293907 14.558751 -27.923035 
6.296869 33.223095 -41.659969 
30.148783 43.723484 -25.425720 
47.851143 9.193594 -2.555537 
-48.291210 66.040337 13.314472 
32.827538 23.862524 30.255896 
-18.423702 59.055767 24.282261 
-35.543915 99.424210 -8.421859 
26.549883 16.355759 40.635826 
-45.885567 3.640447 21.043810 
48.541393 5.547623 16.891144 
-45.318352 80.003769 -9.772657 
27.834715 0.838119 -12.138664 
-11.553332 115.844696 -38.624367 
-16.557524 84.646690 7.749291 
0.072798 103.204666 -39.272762 
-46.357224 17.817715 22.290873 
-19.891788 38.003273 30.147135 
-26.083897 79.075172 11.158801 
29.734877 32.772446 -28.745749 
-38.776196 12.078230 -26.489004 
-30.906115 80.812225 14.300090 
34.209671 2.595823 -31.043674 
-38.769417 20.849186 26.743767 
-17.186455 118.848526 -34.407684 
39.394951 15.556686 -19.543081 
-42.858784 35.017513 13.504194 
21.223021 102.677757 -10.440530 
18.838375 78.276031 -39.852810 
-15.497905 88.632210 -37.913811 
-41.480137 52.346661 21.550636 
7.088240 131.116562 -5.740308 
-37.068527 96.033051 -22.887709 
-47.509415 63.791058 2.900194 
13.841753 47.007442 28.491671 
-40.459225 0.937908 -6.056537 
46.598484 6.439078 -4.923588 
11.207782 23.303385 34.584709 
49.405174 17.386667 11.579856 
9.175705 54.118374 26.386978 
-16.226719 55.924137 -39.168617 
-25.092379 70.208992 24.555504 
14.488609 108.607368 -32.842857 
-34.397663 38.703850 29.566734 
48.667118 63.193653 -12.638013 
-13.925747 8.603643 -44.446171 
-25.490982 82.609909 -33.731499 
-6.961724 28.710701 30.109764 
-25.617874 22.128981 36.847740 
-23.654642 93.387924 -35.086552 
-38.801723 60.718540 27.837799 
-36.483772 99.352333 -21.623138 
27.025560 86.787483 -36.850155 
-8.481636 87.263374 7.632223 
26.376310 19.627731 36.712765 
9.925287 34.701199 33.056274 
37.959541 69.008308 6.159651 
-11.346950 94.730438 -38.019787 
-15.567424 103.221252 -35.110783 
48.356712 42.061180 1.279194 
-43.857445 20.582588 21.837940 
22.859121 97.730576 -7.325130 
-7.871293 110.590263 -43.507305 
-6.310204 36.504299 -42.364407 
-39.175755 7.874774 -25.141518 
-42.194996 90.240105 -15.027667 
48.765396 33.511730 7.280711 
19.334652 25.882128 -36.496601 
-41.797726 20.336021 -17.123812 
-12.747503 94.365005 6.070981 
-24.541740 80.673157 15.975431 
-17.035130 16.726559 43.019794 
-42.244324 10.870250 32.543526 
14.694135 103.382973 -6.632544 
18.835405 87.279274 8.257013 
-47.253658 13.408834 15.802611 
-15.919341 20.250795 37.982994 
13.505811 52.048061 -41.557144 
33.739330 82.988770 -31.746498 
-34.747368 70.251915 27.329786 
12.040734 108.099747 -7.350715 
-41.668114 14.405221 -19.404121 
-27.424231 15.617190 -38.937759 
11.505843 34.230061 -41.239876 
-3.119769 0.952631 -27.990118 
45.721066 30.884544 -2.342930 
-28.097572 42.018879 -33.965603 
-35.282475 33.965721 -26.206936 
-0.694129 0.811118 -15.682526 
42.939358 36.893051 24.659235 
-36.932514 48.913940 -4.776426 
17.647846 110.857285 -30.711254 
-34.898067 43.745632 29.460337 
-31.637651 78.247490 26.139446 
-25.151854 77.824623 15.957159 
14.972629 112.110741 -12.040178 
-4.860214 67.626144 -40.107380 
27.561438 104.949471 -28.031618 
19.302868 89.921463 5.952547 
-41.384361 7.384018 33.220333 
23.805714 86.949905 -38.175163 
-4.185541 99.718437 -4.106491 
18.410385 36.984272 33.547108 
37.484055 23.683649 -9.395050 
-16.531427 123.929329 -37.126083 
-45.139259 10.178507 -4.014807 
-24.127960 73.727196 20.428072 
-29.515425 74.506302 -24.419481 
45.042583 9.215324 -9.759892 
-39.601234 21.006945 29.592754 
-37.584869 22.634495 20.874008 
15.526185 126.165199 -26.700846 
23.754934 36.949791 -36.538818 
37.264244 29.236275 -10.975377 
50.102692 63.534039 -6.731736 
-29.091747 87.422890 0.039549 
39.558174 24.851961 -6.251710 
2.609862 114.092171 -1.252735 
45.415455 72.689400 -12.959661 
33.024174 92.169060 -30.226936 
-25.836508 117.592529 -26.652773 
-0.478367 34.578159 30.109966 
-20.676147 61.074802 -36.183422 
-26.226627 85.886223 -0.911637 
-20.108986 26.080137 39.827633 
-6.662886 0.842978 29.578718 
36.739662 19.551249 35.363991 
21.011223 17.987591 -41.334770 
33.610867 19.882269 -32.690659 
-44.425499 1.041434 -9.090449 
28.744719 96.202141 -34.184658 
-25.797869 116.150925 -20.270599 
26.392324 71.188835 -34.057850 
-33.946545 70.928551 29.541441 
-22.917505 81.531654 9.612248 
-28.046673 29.450100 35.814602 
-2.733546 20.406296 -46.215527 
-19.872400 114.962479 -12.053511 
-14.920859 26.550144 38.239861 
41.551193 64.000420 -19.776663 
-23.958895 59.871986 -34.568199 
32.777725 61.743340 15.891929 
45.429184 43.419487 8.452905 
49.069305 65.911423 -11.988767 
-28.040373 88.448235 -32.511909 
-11.849414 19.837990 40.806076 
-11.811906 40.831776 28.682585 
-9.957050 73.875580 -38.680107 
3.687320 115.932747 0.068619 
11.949007 117.194313 -27.989239 
-32.138474 69.819695 28.205421 
49.554516 13.603078 5.475828 
25.571463 34.016026 31.102446 
38.870853 8.163903 -23.157961 
21.082670 1.172367 16.237347 
8.996939 20.727776 32.892395 
7.719975 43.524361 28.822092 
16.036736 112.256615 -12.270396 
49.440964 60.280071 -2.881478 
-40.094006 25.125191 -4.040465 
34.912640 47.210434 -27.193697 
-11.183541 68.300079 -38.840187 
-46.697926 15.214618 0.324444 
-34.934334 14.897089 -29.897276 
-14.358393 48.950100 23.786770 
-11.211765 20.706320 -42.470821 
30.753410 37.080750 31.670687 
-41.000957 26.279016 21.130348 
-38.080536 80.882996 12.407455 
24.426615 1.636887 -37.011341 
-40.896515 11.882101 -18.637920 
-14.258555 1.270675 44.590031 
39.639175 40.011021 -19.212515 
-28.415684 109.378319 -20.296154 
9.353468 103.253654 -5.494617 
37.719597 20.112625 -17.716805 
-12.888593 134.424713 -7.622803 
9.241972 87.217430 7.473851 
-19.756702 83.465225 5.676533 
-42.796844 5.448488 -13.385320 
32.045071 89.278313 -9.384704 
34.840393 77.620079 -2.888377 
18.721594 119.100388 -26.124685 
37.687668 0.764366 22.395185 
-4.129671 12.415842 43.240444 
-43.753044 84.302460 -4.299706 
-6.466008 32.725658 27.095680 
-38.332829 79.508629 -19.738443 
23.784163 105.531921 -32.225426 
26.018990 33.505596 -28.849480 
26.991121 42.365124 29.648106 
44.181076 39.961002 18.366835 
28.298685 56.105984 20.268042 
28.138191 64.180237 19.355244 
-42.020905 77.133339 1.591512 
30.724945 71.630943 9.176901 
-18.359253 6.795000 45.109856 
13.448533 37.307156 36.176304 
-31.998871 98.250626 -28.554989 
-8.948028 7.647026 45.309811 
36.427933 13.953519 -28.822308 
15.180582 59.465836 26.106293 
-41.036121 92.579727 -7.761837 
-19.661079 43.135368 -39.435703 
43.832825 60.496696 12.655588 
6.930912 11.123122 43.331032 
-43.946163 42.793053 17.979750 
-40.233006 74.813110 24.472431 
-40.365314 79.758049 16.090452 
-14.420532 68.517059 -37.892876 
-35.501038 0.991713 -29.190390 
-7.160272 1.178625 -42.297215 
26.726648 100.090515 -9.112554 
15.372249 21.873613 -36.902390 
-42.409317 77.627403 20.609844 
-22.064564 117.842766 -29.680243 
30.786625 80.530373 -3.651642 
-31.308395 56.502815 29.405157 
-32.363857 20.995020 31.447184 
10.018953 56.997597 27.460880 
-43.557926 81.290092 -4.985695 
10.322202 129.215683 -8.781314 
45.000641 46.033829 -13.378374 
-10.359178 12.874288 -45.716488 
42.564068 21.673180 2.133738 
3.684066 13.376465 -46.620724 
2.027241 120.499924 1.402886 
-28.561176 115.900818 -25.281012 
47.109123 30.329847 1.869078 
-10.238608 140.930969 -23.272991 
27.089062 0.997525 -21.956280 
44.756222 27.830746 8.091244 
-23.201759 44.010387 31.424908 
-45.294537 16.770521 -3.524987 
-36.329056 17.656452 -28.678398 
48.719837 10.434632 4.592219 
48.773907 18.011862 3.297926 
-46.771149 11.567668 18.646601 
30.817768 84.644051 -3.707287 
-34.945374 84.890968 -25.617203 
-46.624931 10.150902 -2.447357 
16.353188 124.267914 -25.151806 
17.946121 83.767563 -40.700367 
-15.944746 122.604103 -6.930875 
44.038120 77.144775 -16.096668 
49.594097 66.095230 -6.909729 
-31.608154 46.665176 28.297710 
15.325614 98.484772 -2.630095 
13.480042 1.216640 8.206729 
7.872223 14.264420 -45.919102 
-45.544983 14.893839 1.953989 
-10.299317 96.894150 2.540961 
-16.726368 21.396517 35.688766 
-4.298007 91.257553 -39.778934 
-41.804855 13.052137 33.888432 
3.581242 16.364620 42.647152 
-43.937511 13.199240 28.039989 
35.961205 39.310478 30.426790 
10.792294 122.458687 -29.829433 
38.734165 28.490070 26.461210 
32.889027 30.889179 28.907206 
-36.274265 35.229076 28.392679 
-38.178246 95.082443 -6.648936 
-31.796438 8.703132 41.167370 
-40.551506 6.492118 -19.462082 
-42.247189 30.160130 12.563885 
28.806425 83.216782 -1.416454 
-42.885670 75.134239 -13.606000 
-47.131462 66.780746 21.760857 
19.975569 71.281731 -34.676060 
-31.820860 55.830307 -22.214861 
11.249929 92.862862 -41.693207 
-35.160652 78.544044 22.377897 
-13.109433 124.926605 -5.283179 
-16.763424 32.888725 -39.738594 
-36.662880 8.143526 37.785843 
44.297451 30.309286 6.733037 
43.960979 14.315006 -9.547396 
7.926989 49.198544 30.828142 
-3.017454 74.436554 27.700218 
-6.743913 87.159363 8.783063 
-32.872746 50.230350 -23.864733 
-1.266116 99.998177 -38.612522 
-37.607578 67.907692 -18.882954 
13.822339 20.998890 -42.445126 
-31.395508 72.329010 27.281281 
-24.244089 38.503513 32.947739 
40.345955 21.550282 19.506519 
7.085785 28.288733 -41.429703 
-18.428844 54.723915 21.724697 
16.246498 92.258286 6.286983 
13.437462 20.871334 -41.256664 
-12.961784 102.641525 -7.465484 
3.494133 68.770699 -41.521301 
36.575882 15.773878 34.217365 
-46.973003 10.236424 8.837408 
34.364140 84.092957 -7.132231 
-46.059349 40.560261 10.686210 
43.862354 0.939916 -6.801043 
-48.660519 55.565304 12.177926 
18.102528 1.286919 11.446309 
15.896944 77.798927 -38.372852 
39.228779 74.595718 -0.980303 
12.440316 103.611458 -9.300734 
-33.302746 6.271295 -33.941170 
-2.545928 117.576180 -38.193443 
-2.087774 77.829224 -40.567711 
39.465580 38.240875 28.043425 
-26.577515 71.020119 -28.921015 
43.430176 36.482651 18.449368 
45.039612 11.017531 25.204250 
26.624166 54.200527 21.577967 
1.872418 140.996536 -24.125553 
44.746605 11.080190 27.759438 
14.635536 85.882874 8.583084 
1.192285 39.329876 34.749138 
19.185432 32.523342 -38.714687 
-45.658035 14.024259 -1.446716 
-2.259088 122.677216 2.500931 
40.225803 86.138672 -15.593078 
-2.831229 89.756287 5.787813 
30.843807 94.263313 -9.862057 
15.797514 84.901421 10.434149 
-32.081707 67.013878 -21.607973 
-24.325056 84.990105 2.086916 
-23.399841 87.393028 2.061163 
-37.287254 18.893076 37.888752 
-17.736814 8.836432 -44.175823 
43.993141 48.297409 23.401617 
-38.225082 17.893532 37.964432 
31.401327 29.855995 33.751625 
15.238046 32.091251 34.848423 
-18.717829 1.353859 31.899441 
-37.832741 25.850740 -8.885469 
46.337978 1.181825 8.840086 
29.661098 63.443951 16.092033 
-19.833763 104.809196 -32.605370 
-19.052519 35.157413 34.313927 
-17.463217 17.513346 -43.613674 
39.812263 88.665215 -21.647001 
46.996037 70.684929 -11.168908 
-9.398567 39.431084 -42.668697 
-24.056732 15.854866 -39.382347 
39.195320 30.421808 25.808426 
-40.594585 18.076267 -21.152557 
-39.144073 15.766317 -25.369452 
-18.830589 79.727356 -36.785217 
45.780964 56.142456 12.668715 
7.848395 24.425753 36.247269 
-22.502672 95.377312 -1.115685 
49.783394 56.357693 -6.630709 
-18.760843 22.919271 37.662418 
44.906334 32.012482 -7.423552 
-25.302076 18.814678 43.290878 
8.992081 83.549759 -42.738701 
0.733220 36.122807 -43.175892 
-40.498272 9.834075 -22.322563 
-23.948563 8.992529 -40.192516 
-38.053547 38.920757 -2.805613 
2.262629 132.146194 -4.076344 
-3.806473 0.943152 0.681654 
33.905842 16.983927 -31.215939 
19.241877 18.040920 41.565380 
-42.450920 69.489960 26.017887 
46.763309 34.351604 -6.991582 
-22.237335 115.901230 -18.173222 
-1.180786 37.215469 23.627909 
-11.564661 54.904156 28.697342 
18.350189 57.475216 -37.997505 
41.927704 79.838814 -9.620982 
25.930119 1.085196 -31.611181 
46.645596 1.701124 14.741954 
36.617928 88.817429 -13.240584 
-40.584827 70.452782 26.865166 
25.136473 63.117168 21.468746 
-44.366268 7.148092 -13.955857 
43.119583 40.227371 21.578766 
17.031464 25.729305 32.779888 
-11.354974 70.207993 26.641752 
27.126087 1.032704 20.879372 
-35.013702 85.178963 1.254402 
-17.778387 30.491947 33.454525 
47.404675 60.921276 1.557449 
-17.245090 128.506409 -36.258167 
13.112419 13.139800 42.546047 
-16.029917 12.424338 -44.385540 
-47.073971 17.833105 17.812838 
-15.979976 50.388863 21.014137 
-18.762886 131.770065 -32.476536 
-12.124721 10.465700 -45.749550 
16.541689 71.484268 26.706469 
12.820390 64.780350 -39.799404 
-31.670393 19.185337 -35.599564 
23.301376 48.734184 26.679956 
-30.954948 97.984520 -4.872970 
-41.822296 17.147738 31.882334 
-32.872208 5.054196 -33.937572 
15.831180 9.483170 42.207516 
39.310883 56.035603 21.297440 
12.036747 83.723625 16.839325 
-6.414518 42.470814 23.087597 
-30.028238 81.636086 18.487297 
25.538450 8.045029 42.016586 
33.284767 19.923849 -27.153557 
0.097214 112.173370 -43.598030 
2.728976 33.507076 34.551193 
-35.127594 38.128944 -21.560387 
28.379431 68.565460 14.609101 
38.280956 78.862640 -27.435556 
28.186558 35.132866 31.132208 
-18.467564 63.628483 25.885542 
48.184517 16.069563 20.090769 
1.457946 74.735985 27.183081 
41.530605 62.341866 12.938386 
44.723022 4.454547 -9.940019 
20.992680 63.394268 22.665558 
-31.034870 11.732892 42.159256 
-6.259971 0.875270 7.707936 
26.292191 54.200527 22.176687 
20.039461 20.103693 29.586025 
-21.580593 51.699787 25.141655 
31.161482 97.010170 -12.934578 
35.695942 39.659821 26.789736 
-2.437183 60.020336 -42.034863 
3.457896 28.794310 37.072681 
-25.503839 113.251762 -31.809875 
-29.984993 62.118805 -22.772774 
-2.570910 105.828369 0.774284 
45.870312 2.608965 22.135820 
-22.693439 57.897018 -35.864372 
42.819660 30.359842 -4.097426 
12.773412 51.849037 30.280985 
-22.095490 33.338894 -36.878784 
35.618111 73.822632 0.726306 
35.647640 69.816124 -27.550737 
-40.883896 56.848366 24.549208 
25.870096 58.065987 -30.073587 
-15.656180 40.987919 -40.914364 
-40.149082 71.751961 -15.441288 
-23.288815 45.187775 -37.561546 
13.379257 47.690899 -42.114017 
-11.633271 78.193756 23.044575 
-44.654861 12.166075 -9.030142 
-21.700317 11.812636 -42.457245 
-41.131805 63.067814 -13.297123 
31.592531 0.981858 24.760874 
-21.879936 91.531883 4.105748 
30.620880 67.287247 -31.020393 
-7.873916 105.556992 -3.703922 
-36.393318 76.684708 25.002758 
45.742107 68.173126 -15.222702 
-47.657650 19.758104 16.751564 
-33.057289 55.946060 -16.548569 
15.320058 114.031380 -10.568815 
-2.493935 15.526123 -46.556755 
7.042024 19.424471 38.854774 
-5.169714 30.297686 24.982323 
-37.086834 100.396133 -10.701275 
-33.313450 55.686234 -14.371481 
41.232880 9.654369 -20.255949 
28.485449 47.809872 -26.931492 
-6.720019 11.201124 -45.861485 
46.544987 11.213913 -5.270974 
30.872129 72.581924 0.701009 
2.652430 111.795250 -0.244800 
9.534804 90.668762 8.597888 
-10.444850 29.850998 32.774467 
26.115383 39.205524 -34.458492 
-27.157309 21.018560 42.112404 
-25.622776 37.783623 32.845970 
-8.905624 1.120556 -38.067520 
-6.646384 56.625481 25.603672 
-46.605118 68.186005 16.141672 
30.587996 63.349701 11.280824 
-31.734322 25.339661 -28.081381 
-41.154984 73.301559 -15.143099 
-17.115406 54.200527 22.775408 
-44.311413 56.055828 -1.889128 
-44.577202 62.419086 -4.815453 
-4.977879 52.461803 27.973907 
-46.292004 1.354078 3.901619 
26.707294 76.955780 3.480577 
-9.243376 36.483147 -42.205051 
34.938950 90.773987 -27.490046 
-13.100487 105.387535 -6.214566 
-12.374497 137.002274 -8.810479 
29.716232 52.300190 23.183298 
32.807320 23.573116 -18.012466 
19.999430 13.561815 -42.500427 
-4.340939 47.286175 27.465239 
48.190639 35.473091 0.430168 
-28.284178 93.049500 -32.401573 
-14.652903 44.613770 -41.630241 
-25.615044 0.661828 -4.927993 
1.129395 1.178943 -41.512199 
16.162708 115.331970 -33.471539 
8.969641 79.008926 -41.761131 
-5.187907 74.428818 -39.887047 
-3.937801 128.196747 -2.999547 
-25.947697 80.113670 3.701427 
2.102068 98.753021 -39.623245 
20.074972 27.341446 33.482849 
39.953579 37.940861 23.938227 
-33.272427 16.252110 41.548447 
-3.314253 27.547985 26.118250 
-19.207170 117.226959 -33.710159 
46.994785 49.841282 13.673122 
8.650485 136.285355 -14.144582 
29.438288 26.898514 33.368954 
-38.248859 20.799437 -22.541868 
-20.124950 72.614296 22.978662 
38.666718 2.412436 -23.655893 
-42.522263 32.067017 9.471364 
-36.731094 47.205227 -3.804064 
26.783243 69.010841 12.006660 
21.729532 57.597912 25.587452 
-22.259436 37.387096 32.930866 
-42.581940 20.279663 -3.979288 
-11.569118 139.823563 -13.532153 
11.660348 131.650101 -15.721312 
46.766544 20.598305 3.065836 
0.863103 55.809155 27.349318 
-36.554657 20.996620 -22.291302 
2.201260 119.183434 -37.504017 
-12.990748 33.369942 31.646425 
48.281200 45.402962 -3.800648 
15.484351 10.638710 -44.063164 
16.185247 93.486542 -41.100704 
34.138542 1.122555 -27.956001 
0.981248 36.564320 37.035328 
11.263436 132.507126 -23.015884 
-40.109837 7.322273 35.518661 
24.355309 56.760326 -30.614656 
-30.944622 79.528358 24.121723 
23.225348 62.000359 -31.885569 
-7.942964 122.434845 -40.053913 
-41.827450 44.285553 18.017927 
48.542225 5.972995 1.906460 
-44.991161 8.215874 -11.299333 
-16.247232 7.042325 -44.561092 
-47.230774 18.431517 8.657576 
19.644279 0.885746 -14.330629 
47.359711 7.502496 0.320322 
-13.486828 13.073548 43.490051 
-13.791996 46.599651 20.425459 
30.123199 10.956035 -36.113247 
-36.698921 14.404515 -29.418711 
30.738983 8.566783 -36.652386 
5.230811 28.995035 38.608685 
-35.259972 25.565561 27.862326 
-14.868563 1.232341 26.582344 
-19.758726 76.111382 16.237598 
-0.432024 110.635750 1.367800 
34.602715 70.800667 3.051053 
-44.933056 20.976034 28.027632 
7.231692 31.915945 35.059750 
-7.196590 7.991771 43.291409 
-0.058115 36.284389 34.255482 
10.240295 41.587135 32.922943 
17.463409 82.562454 14.782709 
-14.108478 21.193134 31.862164 
-5.983185 38.873287 27.125246 
-38.312199 21.649948 25.539759 
-34.361782 7.047230 41.154095 
-47.479309 55.725082 7.492172 
15.384793 7.324594 -43.695656 
30.257502 92.003380 -34.230038 
18.807175 83.916344 9.755234 
-31.397034 20.723269 37.949406 
10.030026 27.066799 35.356434 
3.268071 74.602089 24.666222 
-29.164577 53.721634 -31.360533 
37.315704 73.264931 -26.825148 
-39.607635 20.286184 -23.717953 
3.627515 10.566552 44.052326 
-23.401999 99.584579 -8.937708 
23.599569 106.959358 -13.989504 
46.062542 65.929398 -15.209576 
-21.957022 120.161095 -24.571640 
-31.833591 28.349457 34.714893 
-16.627987 132.649139 -11.620325 
17.860741 78.605904 20.888165 
30.586826 68.375366 3.804181 
1.075710 8.182489 -46.777050 
-6.335853 16.737352 42.572132 
-24.910742 95.629356 -4.842697 
-17.099527 54.539516 24.289579 
46.014194 7.524346 21.345716 
-2.557852 42.750885 22.318300 
35.901489 88.461121 -29.670425 
-38.043667 80.912750 19.597288 
-43.718517 63.866043 -7.625318 
3.000136 37.855640 37.645775 
8.237452 106.830475 -37.660217 
29.727703 74.350983 -32.681885 
-42.447147 53.322674 -5.641877 
37.572701 80.911636 -27.684908 
45.765682 23.735077 9.834371 
-24.435970 21.925274 -33.229362 
48.555317 68.869614 -3.277865 
34.640354 20.902367 -22.563673 
-15.534391 133.044113 -35.497311 
12.663461 20.549536 -44.534046 
32.387779 38.714096 -21.042212 
-3.081318 39.973740 24.892406 
22.966951 107.763222 -28.258801 
8.965903 123.510887 -4.579430 
10.185233 0.923281 -26.912720 
13.689966 126.667923 -18.829233 
-44.517277 77.937958 9.031434 
22.884977 12.592311 42.119652 
-31.787064 58.693935 -18.172255 
45.899242 6.381143 25.215366 
-22.049587 109.571404 -11.503189 
26.051022 1.170303 17.598650 
-0.283512 26.147289 -41.067081 
8.673279 68.708481 29.265858 
46.087330 67.815704 1.542622 
-27.704342 55.269203 -32.361420 
1.837180 63.673302 -41.549923 
20.468321 24.546024 32.879581 
24.681576 30.469313 34.648071 
-31.732073 82.228287 12.092312 
37.199387 89.287186 -23.027586 
23.085180 19.363045 41.479275 
-41.985676 20.547369 27.384871 
47.908386 13.188048 -0.670485 
30.094828 68.010620 14.629263 
-10.900427 82.592590 18.482861 
46.249386 49.661324 19.450403 
-9.764730 85.913132 -39.003822 
-8.602698 45.152779 26.098658 
20.532183 38.072903 -36.405106 
-4.483708 79.679169 -40.116241 
32.540264 11.567241 37.541409 
-24.939764 101.657059 -6.780889 
-14.159082 102.897224 -8.685751 
-27.419722 20.019148 -38.412132 
-40.027153 13.167053 35.868233 
-26.257015 78.154999 23.173513 
3.980510 77.116142 -41.618225 
-41.638271 83.117996 -13.426454 
-37.850250 45.642105 -6.288397 
28.008068 16.125118 -38.030979 
-10.908522 138.377045 -33.673428 
47.591225 11.146342 21.808422 
44.380165 16.738251 24.742027 
49.254841 51.662823 4.921835 
-12.471069 64.533272 -38.421494 
-46.824306 62.676456 9.453174 
-17.035839 49.225277 22.398323 
-37.667156 26.029772 -14.116041 
-38.634541 40.181194 27.321407 
-18.815010 93.167572 5.382242 
-35.139175 43.361176 -18.548086 
-38.673943 54.915897 -11.771064 
18.538967 23.840889 31.359985 
-30.419477 68.782753 -21.432636 
-17.171541 106.533844 -7.386474 
-34.179134 24.515564 -23.236904 
9.063388 25.376844 34.759972 
-35.374039 81.392220 4.138159 
49.872734 36.969265 6.537931 
-32.314575 26.521170 -27.310255 
7.193001 114.854309 -40.971455 
38.699856 5.523582 34.076637 
44.078938 72.197060 -16.397429 
6.287068 57.810612 -42.478024 
-36.375858 26.223200 28.225245 
25.284767 76.286346 11.254949 
34.274090 71.418770 -28.083006 
-18.128622 119.577782 -8.556478 
8.740147 2.700494 -45.598846 
-18.537342 25.215075 -37.027035 
-29.440348 20.467091 -33.530109 
1.510400 105.907242 0.954852 
34.069469 98.505760 -18.688578 
-42.948669 88.696945 -8.733634 
6.098294 138.733627 -25.333994 
12.446667 111.735649 -35.624146 
48.203781 39.665615 -2.201649 
-43.299274 77.081932 17.633051 
14.354888 40.766495 -40.760403 
-36.326252 22.003489 -13.227618 
-6.649864 122.070518 -1.370394 
18.173216 1.073697 -7.936435 
20.388647 100.951836 -37.964306 
-38.687386 32.318684 -8.002559 
-18.669626 93.745697 -36.995701 
-20.106152 2.031495 45.501835 
-1.584736 20.920637 -44.451439 
26.909351 36.965477 -31.647932 
49.270451 45.914944 2.327131 
16.295305 43.609974 -40.019318 
8.699836 6.292248 43.780697 
-39.899269 20.175837 -15.549650 
-42.534878 47.989197 -0.158932 
6.325896 35.127777 -43.073513 
9.991537 21.600372 32.135773 
23.541698 55.055454 24.817316 
26.801741 106.293343 -25.131884 
46.714211 54.926392 -10.547175 
0.290275 78.605179 24.878710 
33.067310 62.169312 12.847592 
1.737511 37.489769 28.791584 
-27.706865 79.644585 11.429758 
-47.081387 6.677486 1.061800 
-41.127499 27.275158 0.145872 
34.611988 34.522320 -14.811613 
13.499719 83.474632 -41.660812 
-14.272928 29.479818 -40.351604 
-33.030857 0.931266 29.028727 
48.076519 18.662588 0.309703 
7.817094 6.647805 -44.714375 
27.308117 0.690203 26.583670 
42.404430 7.145999 -15.885675 
-24.760386 49.993694 30.120247 
-30.707220 59.655464 -22.900911 
12.374913 74.937843 -40.003719 
-32.741447 63.053654 29.413435 
21.501280 66.929520 -33.701721 
-43.327232 44.409779 3.873281 
12.792131 81.216278 20.685413 
-11.810775 44.067898 21.442984 
39.083126 49.388721 -23.137896 
39.232777 81.655556 -11.750383 
-25.933357 39.554710 29.591415 
-46.611137 13.065661 0.861679 
37.107460 74.935814 -3.030336 
-24.857517 75.426834 -31.672731 
42.833321 66.366119 -18.657812 
-6.031307 19.869564 37.853256 
-41.170681 47.977726 -1.852957 
14.475432 51.237076 30.199081 
-33.313663 11.882558 41.850807 
37.962158 20.647518 23.437307 
-2.904820 52.834965 -43.375977 
-30.076824 104.834488 -26.438198 
16.414305 120.227074 -18.992586 
1.009590 138.172668 -7.681977 
-45.685757 68.535599 -2.864056 
38.097858 34.319012 -14.136358 
-42.213043 39.227383 16.133787 
-10.317835 1.922060 46.098068 
18.643461 66.372063 25.621532 
-11.543135 108.269035 -2.877832 
-18.901554 28.214634 36.904064 
38.785007 70.944557 3.814763 
10.071490 25.196814 -40.057362 
19.907408 97.702339 -39.549877 
-16.227348 23.586691 38.176575 
-38.272907 29.957911 -2.422400 
5.809551 8.724491 -46.504852 
4.835238 27.170101 36.578541 
-9.508754 117.963509 -38.592503 
-0.870394 119.060486 1.532236 
21.412115 108.250343 -23.807695 
-21.945885 10.261021 44.246849 
4.988750 139.792755 -14.987089 
31.561047 31.414051 -24.911976 
28.566460 18.682970 -37.165852 
-33.954151 44.884228 -27.587202 
-17.039436 54.200527 23.972851 
-32.434380 52.374302 -25.479422 
-39.718590 93.530762 -17.211020 
7.408908 64.472832 -41.551491 
38.402027 4.721031 -25.770144 
38.422733 88.245338 -15.485135 
-36.403118 42.737194 -15.938961 
-30.347225 45.159096 -30.635015 
23.436041 52.618507 24.429386 
47.910278 32.841702 -3.380062 
-29.608072 2.411469 -36.887619 
-17.735380 71.204399 20.408871 
24.861250 106.028923 -14.030735 
-24.118446 103.536987 -9.875513 
23.054138 62.733452 19.396915 
42.054203 68.250435 7.408496 
37.154839 74.053093 -2.402715 
48.750778 55.395386 8.358743 
-23.827707 38.664997 -36.791363 
44.591782 6.818166 -7.258718 
-23.352072 15.035479 -41.706291 
-46.188190 76.993706 -0.432779 
1.337126 39.729996 -43.784359 
25.501076 32.691498 35.070366 
-39.889935 66.558838 -15.668644 
-34.618748 18.224863 -31.653368 
-38.299664 96.572159 -19.273823 
23.170919 3.133909 -40.334030 
-33.715439 99.408028 -26.613857 
-48.332939 59.181843 20.840918 
-32.539017 88.290466 -28.856535 
-4.741283 63.213718 28.809040 
33.192944 62.922848 17.243473 
20.009506 21.464329 28.782207 
-10.513394 132.464371 -4.535552 
22.366100 87.620621 -3.068995 
-31.263458 84.306648 2.832901 
22.611839 78.596924 14.499923 
-28.780313 106.765839 -14.291821 
-40.211864 29.104614 26.068171 
-37.677292 100.153198 -16.713757 
9.958909 120.059525 -2.344036 
34.465664 0.894310 -9.215957 
38.003113 20.571556 32.995548 
-27.875092 101.871689 -6.939843 
-19.799055 112.390022 -39.118599 
1.929470 90.730515 -41.136600 
-30.999943 97.582260 -30.266914 
-21.686583 20.743637 37.157295 
-47.859055 62.265301 15.733796 
-10.009155 0.828302 15.281696 
-41.563942 37.716419 8.618759 
-18.743782 57.042023 -37.998756 
-39.789925 57.606728 -13.086402 
-38.536602 21.006252 36.869816 
26.122864 53.720352 -28.332830 
46.361691 56.296913 8.680283 
-43.424290 72.892654 23.967100 
-27.502190 47.753159 -33.910469 
-4.188240 21.269979 27.079609 
-39.390285 24.762247 9.097715 
-9.979680 46.705463 25.706997 
-46.519478 13.799566 9.331279 
-38.852924 35.320503 -6.572956 
46.987179 62.328819 9.422261 
-26.094858 62.125011 -31.883615 
-40.225262 82.778969 -0.215927 
3.777939 30.391411 35.007938 
0.992356 98.210030 -0.242909 
41.843018 67.139107 10.419156 
-36.779758 21.168077 -15.459994 
-27.738367 46.319408 -32.900684 
9.787496 25.075201 32.290646 
-28.987087 112.339882 -14.810894 
18.595892 75.272308 -36.216820 
28.463383 68.602844 -32.762665 
1.731650 41.542393 27.398127 
20.883608 47.104763 -35.843430 
-30.095802 16.593693 42.310734 
44.954704 53.845425 15.459286 
18.600248 84.926430 6.348207 
-46.686802 5.345645 5.955805 
-26.974581 96.192497 -3.465424 
42.362087 73.036911 -19.833008 
-40.528854 25.731894 25.379515 
5.634927 54.167610 25.753557 
-38.030426 86.011261 -2.224686 
35.244225 51.817570 -27.745445 
-7.595526 101.802284 -3.537597 
12.901901 106.680252 -8.603772 
45.976994 14.023694 -7.368475 
49.865421 14.102922 11.150857 
32.300720 30.760017 -21.480932 
-2.505315 10.264329 44.568481 
4.931247 54.200527 26.068377 
0.972718 131.915771 -38.420345 
10.161677 1.308400 -42.303810 
46.132374 44.067616 -11.510565 
7.184709 28.087030 36.574390 
-21.616697 109.314400 -33.658085 
-13.717535 96.020439 -37.278900 
-45.564362 85.409119 -6.534238 
18.328226 70.702805 -36.503868 
36.810696 79.819466 -7.013486 
5.947576 62.436848 29.562628 
-40.445919 83.633659 -3.684559 
-45.971577 20.318546 27.374369 
45.733101 59.221390 -15.599379 
-10.791834 51.698776 27.572889 
-41.838432 47.623154 19.518963 
47.619606 20.286545 -0.679769 
20.016315 63.238415 -35.763863 
-9.929419 13.582484 44.204227 
-42.174751 8.348872 -15.971316 
-26.103523 115.965515 -17.381718 
39.470894 85.201157 -23.004589 
-28.301050 90.986084 -2.262933 
1.891361 32.780392 37.303051 
47.886993 48.277084 -9.367586 
2.535610 121.744705 -0.937486 
44.464493 29.494152 10.503782 
46.094494 73.415138 -7.465268 
-13.049509 107.174751 -38.728195 
10.762699 59.522816 -41.658634 
-1.533119 0.714159 30.878082 
8.456708 78.852821 24.818169 
20.819668 14.606940 -41.210037 
-35.953587 68.790909 -21.174017 
-37.759552 26.454672 -12.808082 
37.334675 90.762726 -19.605450 
46.767372 52.211708 12.680653 
-30.543140 21.623453 31.352631 
7.416559 116.591904 0.442245 
40.667801 82.956627 -18.191895 
-39.195507 85.974052 -20.795547 
0.106777 51.409218 26.888868 
33.712315 58.472904 20.833052 
-38.976830 32.087330 -13.605362 
-24.183741 40.278259 28.978041 
48.400528 56.699062 0.520461 
-31.984266 34.815239 -27.476826 
28.998940 55.039452 18.949575 
36.860321 62.511635 17.503735 
49.809177 10.742614 13.004678 
11.982441 53.964058 29.169424 
17.017223 22.939558 27.096939 
47.313248 60.992821 3.945145 
-13.531579 90.845398 -38.456375 
-31.420403 29.404926 -30.949892 
-22.597485 26.034006 38.983990 
-39.134342 84.120438 3.024997 
-37.917854 44.382866 27.794970 
-26.326288 107.048782 -23.353645 
-7.775350 61.978802 -40.233494 
41.160297 10.225184 30.179451 
-46.458363 73.990982 -0.244826 
30.469311 66.782196 11.133019 
37.736881 51.555023 25.693605 
19.844522 114.414154 -28.500572 
-9.818013 96.101151 -37.905972 
-29.226473 42.642056 30.841232 
-14.596500 63.218048 -38.548809 
-45.094608 19.705654 -3.596179 
-36.320995 20.661320 34.489506 
-19.592966 82.154778 8.882854 
22.374878 111.786781 -20.396517 
-19.767427 60.390827 22.878292 
-35.311153 45.366745 -20.111862 
4.081337 91.578262 -41.693058 
14.314022 125.011589 -20.818377 
20.398939 113.872856 -19.933945 
11.695722 111.536240 -3.552248 
7.527446 98.983826 -40.491241 
-41.696335 30.401672 16.119085 
43.745316 57.354980 19.366385 
-20.992390 37.181801 30.271030 
-28.890425 58.374496 -29.416590 
-11.089509 41.914997 25.121420 
47.795292 31.031116 5.562359 
24.378910 20.741064 -37.514088 
-10.019419 2.430572 -45.339355 
-26.910559 118.615097 -20.222050 
26.777040 5.704197 -37.981846 
-44.840965 55.740479 -0.234891 
41.864544 6.335172 30.764521 
-27.017832 10.484018 -38.210632 
28.609243 16.076550 39.559978 
39.607426 25.253712 24.980322 
-39.143635 24.514746 24.929523 
4.585792 137.964615 -30.472902 
-25.922045 20.271477 39.621834 
18.107609 43.863449 29.333975 
38.624954 88.732918 -25.772186 
22.447048 94.160286 -6.888131 
-32.907780 102.700745 -9.658203 
32.082344 14.496265 -33.029392 
-14.781773 0.907420 11.279146 
23.316700 10.421795 -40.318539 
24.577009 34.456009 -33.584499 
49.185642 6.610972 4.855796 
13.949674 28.052582 -39.162117 
40.122860 71.167091 -1.252527 
29.600046 69.823372 3.525296 
0.402466 93.705704 -40.390999 
-28.237457 22.995808 -29.704945 
47.130814 63.562202 6.614430 
-32.616474 55.996277 -21.068323 
-6.054473 85.134613 16.234236 
30.829035 88.730125 -8.736399 
-14.509742 28.006857 -39.547733 
2.358090 47.057461 27.090734 
-33.115532 82.669815 -26.959131 
-40.916462 62.244499 24.944399 
-48.846310 60.021656 14.166862 
-41.467560 56.604427 -10.699452 
-46.037495 6.787208 -8.138365 
-38.686153 36.122059 -6.136758 
26.896845 99.106865 -12.733302 
11.945512 125.137268 -8.680724 
0.799975 57.122169 -42.520832 
-3.760692 37.550251 -42.918549 
-21.191875 116.583809 -15.423405 
-46.070747 56.846752 2.439897 
-43.849392 79.659538 1.367497 
-42.049812 59.627636 20.849285 
46.252014 20.161011 13.504316 
38.052628 59.447445 -23.594933 
-21.372463 84.301025 9.243013 
-7.721868 54.664066 24.211573 
20.631571 109.704483 -14.439886 
-4.460286 48.394794 -43.783302 
-26.794443 33.771404 34.226315 
12.161693 115.227654 -37.100014 
31.512346 101.550079 -26.603371 
14.163196 19.625187 38.419617 
4.312746 38.729034 34.422028 
9.000412 102.023087 -39.855717 
-19.823235 131.818741 -18.705088 
15.337422 117.677765 -30.953739 
-22.195360 126.836266 -22.205309 
6.674509 15.887527 41.951519 
29.361610 74.955093 3.329622 
47.072575 31.626184 0.653112 
-10.055104 22.638039 30.589575 
-18.524269 25.869106 39.374573 
43.281277 56.096169 17.679461 
1.374301 35.813087 31.271826 
-17.266357 52.013378 -39.774067 
20.651937 71.162148 23.643593 
48.977619 54.055389 -8.762218 
22.167299 19.626446 -40.962086 
-23.439894 111.543892 -32.172272 
6.259947 35.592766 32.284500 
36.927341 94.670578 -21.189087 
-1.824009 28.302538 -42.258060 
-27.000347 53.018627 30.196651 
-0.513539 96.739738 -39.318291 
-38.840813 79.769440 10.255379 
-25.509239 56.037815 26.783026 
-0.495293 0.661193 45.215221 
-2.161821 68.956383 29.239988 
-25.727243 110.243324 -12.450064 
37.913521 20.674730 -22.211876 
-44.477299 18.501625 -10.486446 
-44.300892 66.443207 -2.874432 
17.510317 54.480892 26.937393 
41.260124 44.582130 25.118555 
3.302751 34.827686 37.087421 
19.012304 76.238274 22.235128 
-21.029814 1.257891 -40.767731 
7.353990 34.049652 35.878155 
39.798973 81.077568 -19.924990 
35.154869 31.568251 -15.291428 
34.875614 26.120905 -14.752873 
14.256429 10.065243 43.287373 
35.652657 65.777245 10.139799 
-24.524426 116.155449 -22.245434 
-27.119978 115.865669 -30.300364 
2.599931 57.140285 -43.072262 
44.429081 37.737370 7.480374 
-43.529297 17.521601 -12.971424 
-14.086977 66.367355 24.329271 
17.269184 110.749901 -12.951829 
13.198698 31.359486 33.920712 
-35.078732 77.051056 28.170603 
-38.653061 41.044212 24.263939 
-1.468889 40.418667 23.838440 
-14.638226 29.612368 34.168892 
27.790323 12.645467 -37.907257 
-41.402382 80.387550 9.106217 
10.522455 28.208189 -40.945885 
-43.488785 20.743114 8.420533 
35.912788 32.940983 28.650982 
-27.983967 94.418564 -4.458040 
17.898142 38.738743 31.299530 
38.659111 11.706498 33.407455 
-28.347279 78.064629 -27.085150 
43.867992 36.163334 -11.902263 
14.536552 28.194788 30.907557 
-35.391144 89.955467 0.027335 
-1.835911 32.558384 22.781822 
15.570085 122.694199 -28.238201 
29.227514 53.715870 -30.542881 
27.818443 62.662338 -32.600487 
-28.132620 107.756912 -19.427906 
-36.957111 59.855080 28.321882 
44.343719 20.080317 19.331099 
-20.858593 85.606850 6.288415 
-8.709903 43.412319 23.891424 
-7.753427 139.606674 -9.689935 
-35.082394 20.946453 28.731525 
47.615913 44.762974 7.426192 
30.747404 9.214354 39.709641 
20.034302 20.694744 -38.732948 
18.284754 119.262497 -24.420536 
42.854130 72.989281 -5.003610 
-46.190838 13.282554 21.869232 
-45.481087 59.046135 -0.551031 
8.075784 91.649208 -41.695892 
48.731243 51.317810 -0.701219 
-27.786865 65.527115 -27.861626 
-29.294104 8.676716 -37.923355 
-4.080444 44.449654 24.863085 
19.915531 22.836264 -33.305801 
-41.128651 20.355297 -10.922371 
-28.237341 78.366028 24.638605 
-4.255047 54.361797 24.960266 
33.252697 1.204224 36.555882 
-37.357731 51.596748 28.879278 
3.506338 0.798946 20.354065 
-3.005141 22.580912 -39.826328 
8.504435 33.643642 -42.192215 
22.368242 73.642120 -37.192223 
44.089394 60.042713 15.010511 
7.081799 0.819164 12.531412 
32.907780 98.861900 -27.778425 
-0.080006 32.130833 26.646488 
2.386719 45.723000 29.997402 
43.732059 66.336258 8.616099 
26.165148 105.631523 -20.098810 
-35.631981 72.230476 -21.841320 
-40.666782 30.560858 23.438679 
16.047777 86.213432 -41.512375 
25.118540 52.796669 -30.800980 
-19.788891 114.829063 -39.124451 
-15.601980 136.812668 -13.788515 
-0.891231 140.316223 -11.101968 
-18.114191 108.429199 -36.546188 
-40.459721 1.255569 10.465697 
43.594418 79.893723 -13.262623 
-3.199192 87.557304 8.847992 
9.142688 109.676987 -1.510002 
32.463612 6.237019 38.870712 
6.448643 40.817825 35.488281 
39.719765 18.023167 32.247124 
16.375492 46.233952 25.517775 
44.862881 72.126587 -2.066678 
33.668728 56.868076 20.814892 
-43.800808 67.686615 -8.902817 
-30.932814 21.023243 41.944363 
-7.591684 99.057838 -2.351028 
-40.846291 25.928364 0.595959 
38.140274 85.169960 -9.774620 
36.770901 57.376751 20.747726 
-21.863234 80.766205 6.100948 
-19.198931 12.660633 -43.141918 
-18.926043 0.613551 -13.495660 
25.618679 38.564331 32.507191 
45.517296 42.351070 14.925303 
46.567722 45.789135 13.820241 
-33.326199 105.391327 -17.632114 
49.000072 49.345051 -0.679029 
-35.099480 79.103470 25.507359 
27.299950 74.024734 2.908197 
-21.795870 16.016542 42.940742 
13.470279 77.033073 24.853756 
5.620841 55.318176 -43.412987 
31.588570 15.728627 -35.534286 
-23.874079 51.121346 26.231028 
-38.100189 77.288979 25.569016 
32.947758 29.171694 -19.225708 
29.387974 4.020505 -36.669224 
-35.322746 49.345818 -20.839317 
49.437576 12.098332 8.679776 
-29.045935 76.216339 27.159122 
4.412687 54.200527 26.295061 
-34.066322 84.879646 4.832986 
1.668531 90.347153 5.592108 
15.356098 117.755211 -17.326418 
-27.995033 79.208900 18.511679 
32.204857 48.218124 28.598000 
42.044704 80.670982 -14.203567 
23.900583 67.093803 18.978390 
-44.628078 20.264278 8.895567 
-10.290332 15.140143 -45.731731 
-37.668678 70.252899 28.439001 
-11.855185 41.735554 -42.349731 
5.094797 102.358177 -3.038364 
-39.439384 80.178078 2.175537 
44.761539 19.853561 26.574957 
28.745066 1.141473 11.424340 
30.532925 22.444159 -21.229792 
-9.580013 1.067611 25.036448 
-7.995030 72.700577 27.440195 
33.927670 17.808208 36.748158 
4.248339 43.237015 29.471912 
15.886737 20.599016 27.196857 
-6.354452 137.075378 -6.571006 
-15.499257 111.432716 -41.552105 
-24.892418 79.565559 -33.009113 
-43.560070 14.233348 -12.559237 
34.336334 80.935402 -5.032476 
-40.717659 91.603760 -20.182611 
-15.900953 57.322853 -39.056862 
31.230890 12.307129 38.831825 
-8.309730 133.548370 -4.686376 
24.972673 59.434574 24.063766 
-39.545685 5.262982 -25.014893 
0.415711 18.226448 -46.263313 
27.936584 104.228706 -18.455051 
12.411580 95.371017 -40.974346 
-42.365925 68.753006 21.575663 
-10.116131 90.229568 -38.776291 
-31.797831 48.752037 27.554367 
39.401497 73.840645 -24.423014 
-11.477926 46.153866 22.775408 
-31.259611 29.503607 32.377159 
-38.518188 61.960579 -16.406433 
-3.967460 134.873016 -38.552216 
40.797829 18.120451 -17.807129 
-29.411364 62.943268 28.255777 
37.935047 25.042891 -8.799533 
-22.109791 124.124954 -22.231136 
5.580023 7.594837 44.607998 
-15.023001 110.939713 -4.185955 
-20.503826 45.694736 30.460150 
36.746685 81.704552 -26.081535 
-48.992088 50.916031 18.404346 
26.471823 16.886311 -37.986984 
-26.704342 12.039019 -39.790665 
-15.926701 115.885139 -3.657359 
-34.056526 90.167984 -1.262251 
44.936897 33.771564 12.629838 
41.147202 20.531336 24.226566 
-33.631844 9.487015 -33.593349 
46.067451 36.337521 -7.288392 
-36.975849 97.367981 -6.953436 
35.006618 74.970924 -29.535252 
20.106453 28.730946 -34.197090 
-31.877436 92.337250 -29.809542 
25.132748 101.603523 -9.149837 
-12.501661 92.095291 8.176517 
-29.934544 52.575508 29.713112 
-19.009624 20.538477 -39.838207 
-21.160606 102.127052 -6.535645 
-16.591000 110.131516 -39.311623 
17.017443 67.461243 -37.583206 
24.652746 20.408615 -39.303398 
35.037079 28.759886 31.349722 
-41.153603 65.428421 22.991039 
-33.672092 29.097383 32.703182 
-38.250111 23.659924 26.915310 
10.826943 1.066445 -4.208703 
13.145147 117.417412 -20.562170 
-30.793659 81.340073 7.752114 
-0.447619 20.223696 28.404581 
-46.531750 19.699615 6.686534 
-6.583020 127.855812 -5.463900 
0.098776 23.570982 27.675789 
-31.642073 21.635454 -26.756001 
-33.403225 62.640495 -19.153063 
-41.624817 11.460088 -20.130518 
-24.954639 106.912659 -26.754143 
-40.594891 2.948324 34.114304 
-43.100407 9.183307 -17.308727 
10.983514 1.218392 2.428354 
21.618374 31.893642 -35.498470 
39.623310 48.845768 -21.616007 
43.471069 72.902328 -17.238253 
43.780163 15.269083 28.525652 
43.051926 20.661652 26.366222 
-4.249602 22.762920 28.824614 
38.423340 11.239313 -26.720324 
-15.388656 9.560629 43.514458 
43.634331 24.448059 16.573339 
37.989899 44.107376 -22.999348 
-17.728455 45.204399 24.422766 
-16.711113 38.268005 31.582996 
-38.118984 14.219620 36.818230 
-21.818956 76.315331 -34.910419 
-5.783677 4.327833 45.880539 
-44.667877 72.735489 14.925105 
-33.876392 21.704565 -21.190392 
42.046001 80.455734 -21.295692 
-45.974178 4.613159 -6.050489 
-47.341366 11.893911 11.139618 
-20.543606 15.465755 44.262627 
-9.194387 115.157913 -41.209896 
-46.785896 81.376938 -6.218351 
10.019896 18.748293 -45.400787 
43.289127 9.313974 27.225842 
-38.002708 23.278908 15.104225 
4.872388 43.126015 -44.140869 
35.355137 58.153187 21.410753 
-39.598164 73.708115 -17.605350 
-9.136988 89.261414 9.154500 
-12.499982 35.978634 30.206989 
-26.772247 18.190599 -39.143867 
9.023500 30.976355 36.435318 
23.988712 69.405457 -35.246639 
42.873703 75.565651 -10.164298 
-32.565510 10.455878 -33.290138 
-32.697960 77.324883 27.807087 
-11.178102 46.142208 21.875244 
38.670395 19.265303 -23.596397 
-4.461881 49.352654 26.784878 
-24.729233 118.725868 -22.515705 
3.482856 117.654045 -39.198227 
-16.789049 128.566727 -9.092632 
-37.118595 22.073664 10.754993 
-28.162342 73.468010 27.491568 
-37.112625 46.104507 -0.979725 
0.183022 39.789337 29.895309 
-3.751742 36.632549 25.366798 
-33.610962 54.088970 -12.218588 
-23.006369 79.738487 18.465885 
0.290607 39.502975 24.684193 
-1.000481 33.361938 24.059139 
6.594056 46.215172 31.122679 
-37.424664 8.830669 -28.430185 
49.967373 54.462345 -4.861202 
4.562703 30.856844 37.833485 
-16.354439 71.150459 22.495419 
-30.141155 15.051955 -37.161983 
-32.064503 23.962479 35.345093 
12.582025 28.623085 31.371105 
21.424610 49.059029 -35.929527 
-35.085812 43.232861 -22.008564 
15.831626 33.928024 36.459679 
-5.379499 107.788116 -40.974167 
5.036064 83.210899 19.676582 
-21.190119 22.523840 -34.529655 
3.039958 24.699400 -40.589439 
-5.998856 115.386848 0.797390 
-33.671425 10.915115 40.013542 
40.519787 14.507275 -16.753771 
-23.528584 106.442833 -29.076960 
34.865543 95.369072 -26.983603 
-36.085106 2.863992 39.539597 
-10.390496 5.637631 44.571159 
20.153402 16.664408 42.236843 
-29.176794 113.173080 -18.261251 
-46.836327 68.909142 1.154145 
21.532944 20.735085 30.213039 
-32.263363 78.256905 22.593349 
-39.370888 32.831623 22.270285 
-47.010929 8.989662 16.364937 
-39.591709 75.322021 22.461536 
-13.688717 100.087364 -37.115601 
47.519363 17.925680 18.980330 
47.658413 65.542801 -9.184732 
11.695717 43.652920 26.884287 
7.690949 106.228279 -3.930313 
-10.415692 51.729172 -42.118408 
31.043797 98.954910 -30.206127 
44.512718 18.105669 -8.572705 
-18.000221 76.310066 -36.645405 
-37.883263 30.222309 -18.247927 
31.591021 74.150612 -1.599196 
-33.821270 33.777012 31.342150 
-29.219404 86.211517 2.670024 
-23.521730 1.023036 28.689507 
-11.118028 122.561935 -3.481530 
-15.808722 136.799789 -31.230749 
-18.911924 99.980133 -35.929333 
28.496456 90.744308 -5.622101 
-18.503548 110.922295 -9.997317 
-3.005232 117.945747 1.606532 
14.477475 122.868797 -22.468285 
47.212643 17.248158 22.165997 
-43.307941 71.504440 21.721987 
-31.274916 75.268616 -26.133118 
-44.347157 48.817104 3.098138 
41.374874 17.531130 -15.284844 
39.710983 8.489888 33.111332 
28.097904 78.392769 -34.442780 
-23.467859 114.321449 -15.467471 
31.144638 96.660172 -31.639599 
7.904887 133.778702 -8.228359 
-10.993849 118.098877 0.154625 
44.861629 33.035976 16.444057 
38.061092 63.872089 18.040813 
16.817707 57.853973 27.471321 
-5.230951 113.722672 -1.018341 
-18.481081 135.286163 -27.536062 
6.754071 74.926910 -41.556957 
4.048358 52.190811 -43.736336 
-47.431431 72.251770 8.303466 
45.515076 43.016102 17.899874 
-32.599060 81.881989 16.292225 
-29.038601 24.903797 36.942280 
7.267531 86.053566 13.618208 
-35.795040 20.746176 -28.963741 
-32.161007 24.137196 30.898329 
36.593262 23.688429 27.069241 
-26.858194 1.040504 -33.638588 
-28.337677 115.471878 -20.384972 
50.052982 65.160210 -4.292155 
-37.608406 43.855396 1.593510 
43.688843 21.319927 8.063516 
42.071270 62.740112 16.955854 
-38.263699 24.104195 -8.319774 
-45.083260 2.088837 -11.029225 
40.388119 57.799961 21.467491 
14.621523 72.158760 -38.921917 
11.658125 17.668226 42.312450 
-38.877819 92.911957 -4.418864 
46.990067 66.398880 -2.362902 
35.549915 9.062163 -30.999573 
39.322853 78.475723 -6.368819 
-41.026161 1.198374 28.698050 
24.665981 81.125282 3.746885 
34.889202 97.899796 -20.881102 
44.355000 73.623451 -3.338519 
47.198177 10.759617 18.669333 
-16.415709 108.176033 -8.313908 
-19.485264 53.328175 23.816040 
-28.123890 102.403122 -30.240961 
-4.434403 138.059174 -35.901546 
21.769218 88.425423 0.985572 
5.013779 108.786583 -0.806441 
7.587055 1.199443 0.888502 
-47.163689 49.289471 9.499239 
8.149356 33.789684 33.054211 
-15.044324 20.379459 -40.998348 
-25.761827 25.579737 38.394917 
-21.483110 73.343376 -34.515621 
47.538406 13.790924 19.309963 
-33.268154 75.621468 -25.290125 
-46.687679 8.615260 6.089437 
19.761444 60.351845 22.662746 
-8.121313 1.043844 45.330177 
-38.901985 27.502743 16.608091 
19.749359 103.476173 -8.841099 
21.996517 83.762016 4.127374 
-37.414165 80.379852 -21.505907 
-3.260294 124.744652 -40.357346 
3.040025 39.294865 32.375710 
-39.751019 39.299957 7.797166 
-4.418454 44.930977 -43.777264 
-11.812346 86.129501 8.607176 
27.072006 45.574802 -30.423063 
-3.583472 16.217403 -45.453835 
12.585892 12.725371 -45.032974 
3.384964 138.983749 -9.689820 
-34.026711 65.304489 -20.707453 
15.521389 126.736107 -23.185890 
-11.811958 59.453655 23.183544 
2.888039 88.519394 4.831342 
-4.313941 101.507088 -37.391361 
36.570545 11.612116 -28.843468 
4.141607 21.028278 -42.786259 
-31.510763 31.875381 -30.920238 
-36.634212 3.357802 -29.762032 
3.283091 134.063812 -5.351500 
-34.626701 102.920609 -20.265965 
7.678428 81.124100 -42.300030 
-37.576584 40.024284 5.609696 
-20.583265 118.758293 -18.241220 
40.288181 20.045197 26.880753 
-16.042398 116.594276 -35.180012 
-13.720819 25.549641 32.625919 
16.884493 100.668579 -8.942345 
14.654562 107.895966 -8.477536 
-12.998015 97.885658 -37.234234 
-11.403815 62.316414 25.312231 
40.268314 21.510952 -2.573039 
15.627738 8.784036 -44.431282 
25.186489 65.228867 16.118088 
9.025831 94.157059 5.990054 
-0.789198 115.442055 3.003579 
44.026875 35.779354 11.827448 
49.171570 10.742488 16.109091 
-24.135702 124.041519 -22.343273 
21.832066 59.521095 -34.077126 
-7.383269 27.243612 31.392673 
-21.264196 54.247585 -36.795345 
-29.726809 12.886016 -36.418671 
-33.432365 98.973534 -5.593739 
-40.879635 27.988708 13.396025 
-6.242485 120.126732 1.318638 
-0.345484 106.292404 -40.327332 
5.689508 127.083351 -36.461681 
29.819014 50.473228 26.880959 
-41.975639 51.752197 19.645292 
43.982883 45.079517 -14.000155 
48.181686 3.765301 13.879817 
45.741131 31.934361 7.368373 
-11.208382 57.981209 25.143106 
7.996027 105.803482 -37.057873 
-23.305979 40.611626 30.453955 
24.257938 20.294773 31.328987 
-23.388178 34.268757 34.311432 
0.560219 21.985214 26.121080 
-21.073109 27.225031 -37.151073 
-31.211090 106.237434 -20.789581 
49.138840 47.895615 -3.407104 
-26.393513 46.797100 -34.874916 
-38.323853 43.714703 2.692294 
-32.581097 16.103294 -33.277370 
29.559357 100.952049 -14.975003 
-28.843618 72.053436 26.437336 
-7.494955 113.188950 -43.401436 
46.433395 11.055225 24.453930 
-25.661163 0.964805 35.643150 
29.310280 72.183746 9.626778 
