0.416358 0.646836 0.364859 
0.488505 0.627089 0.856625 
0.644760 0.298984 0.369554 
0.682888 0.473961 0.253259 
0.332751 0.434823 0.293698 
0.549085 0.714875 0.349775 
0.506453 0.542892 0.668292 
0.531142 0.762464 0.801391 
0.406729 0.627341 0.359887 
0.589362 0.714911 0.330282 
0.581842 0.699283 0.212647 
0.586354 0.554062 0.185835 
0.335492 0.416501 0.202560 
0.546813 0.751642 0.472810 
0.429697 0.571789 0.193329 
0.633289 0.269794 0.128927 
0.683657 0.612117 0.550331 
0.531483 0.201221 0.187087 
0.372898 0.592938 0.739707 
0.456801 0.540619 0.605481 
0.371225 0.597511 0.762038 
0.501290 0.787111 0.787277 
0.677302 0.654994 0.598887 
0.393236 0.620632 0.640813 
0.679868 0.529437 0.469978 
0.615860 0.718179 0.702527 
0.482727 0.727700 0.476806 
0.680687 0.621836 0.461951 
0.598566 0.751309 0.588361 
0.605186 0.551787 0.237003 
0.477553 0.724827 0.469129 
0.360402 0.617462 0.751184 
0.443812 0.683747 0.188853 
0.485721 0.557647 0.770615 
0.428810 0.570365 0.526046 
0.677281 0.647722 0.420465 
0.573176 0.277996 0.429387 
0.425218 0.668377 0.843287 
0.676967 0.652849 0.406013 
0.415673 0.582168 0.489359 
0.677041 0.688675 0.435475 
0.492777 0.398508 0.552878 
0.675138 0.575099 0.582175 
0.593033 0.710540 0.318309 
0.414661 0.618377 0.306531 
0.681003 0.691815 0.498205 
0.454214 0.793824 0.756478 
0.679827 0.502871 0.336641 
0.429939 0.671407 0.206680 
0.684034 0.588233 0.515239 
0.601479 0.573729 0.144103 
0.596142 0.734631 0.712420 
0.458685 0.372494 0.480220 
0.586667 0.716892 0.121629 
0.673586 0.700027 0.447890 
0.675299 0.350447 0.182962 
0.460189 0.688759 0.205001 
0.592950 0.754453 0.475398 
0.554021 0.753337 0.576819 
0.426855 0.582958 0.315640 
0.705046 0.399286 0.277940 
0.408252 0.582425 0.403708 
0.680014 0.544889 0.478970 
0.517883 0.203332 0.232599 
0.600695 0.261880 0.357975 
0.361869 0.496436 0.261805 
0.470623 0.557427 0.756715 
0.677657 0.476671 0.393052 
0.446911 0.228030 0.273421 
0.430819 0.647918 0.119019 
0.683980 0.614452 0.490732 
0.422695 0.612419 0.248583 
0.454988 0.677754 0.300250 
0.564238 0.411625 0.592801 
0.680415 0.543886 0.484147 
0.472243 0.522018 0.611400 
0.351728 0.369185 0.342402 
0.435784 0.768364 0.680337 
0.580540 0.227892 0.301030 
0.414064 0.582275 0.364431 
0.514839 0.740990 0.468035 
0.336237 0.301438 0.100715 
0.483584 0.787632 0.748205 
0.684008 0.608858 0.539724 
0.448493 0.677137 0.283777 
0.473449 0.440884 0.551913 
0.666002 0.715158 0.478740 
0.469214 0.556936 0.798303 
0.410636 0.535317 0.399531 
0.399310 0.311738 0.354483 
0.523329 0.391190 0.568344 
0.708804 0.437245 0.314775 
0.608703 0.295170 0.407360 
0.412811 0.638870 0.507777 
0.574380 0.737247 0.389844 
0.702880 0.455945 0.350327 
0.563895 0.606254 0.124082 
0.648549 0.631883 0.685971 
0.589373 0.217417 0.232803 
0.405968 0.736560 0.813324 
0.557543 0.275199 0.430826 
0.462515 0.701132 0.855483 
0.475135 0.753187 0.654239 
0.414203 0.738667 0.819820 
0.669954 0.535345 0.407186 
0.679048 0.368095 0.193887 
0.444555 0.751524 0.872788 
0.503241 0.261694 0.406996 
0.495384 0.620211 0.854876 
0.635618 0.530651 0.635679 
0.673670 0.710616 0.532764 
0.567572 0.758774 0.597021 
0.406595 0.581962 0.175207 
0.565792 0.619128 0.138207 
0.492093 0.789681 0.785977 
0.358341 0.379227 0.362911 
0.575348 0.708449 0.153034 
0.594879 0.288658 0.421808 
0.520415 0.775082 0.794647 
0.620674 0.624764 0.261449 
0.418181 0.527377 0.490167 
0.432273 0.717152 0.841479 
0.647813 0.508699 0.601627 
0.481483 0.312325 0.457542 
0.356493 0.331170 0.310101 
0.418755 0.242362 0.249595 
0.429482 0.671310 0.156070 
0.643621 0.577187 0.337664 
0.359288 0.727885 0.756912 
0.409881 0.407019 0.409573 
0.331066 0.427884 0.293009 
0.625532 0.463713 0.595832 
0.442003 0.574659 0.864637 
0.622430 0.345299 0.462594 
0.454137 0.686701 0.227641 
0.638803 0.410748 0.523587 
0.424718 0.487645 0.511303 
0.453653 0.679249 0.289121 
0.456447 0.198588 0.164545 
0.409017 0.249473 0.256855 
0.670070 0.679359 0.395634 
0.449742 0.250183 0.328658 
0.527365 0.700278 0.215807 
0.395816 0.761408 0.774978 
0.512313 0.359704 0.537534 
0.440451 0.567882 0.883771 
0.664107 0.462304 0.205053 
0.570889 0.212321 0.201270 
0.448368 0.731419 0.118244 
0.649611 0.501704 0.223415 
0.700901 0.399835 0.373676 
0.622536 0.259903 0.324713 
0.547750 0.238500 0.361515 
0.678322 0.699000 0.538248 
0.454469 0.796117 0.765933 
0.332416 0.395908 0.316241 
0.552980 0.253632 0.389357 
0.420335 0.547975 0.326227 
0.453401 0.205404 0.137744 
0.429489 0.626075 0.107790 
0.429502 0.546934 0.238997 
0.646221 0.493639 0.175404 
0.569897 0.743290 0.719659 
0.542842 0.707535 0.339563 
0.581143 0.721925 0.112993 
0.508466 0.684832 0.225787 
0.678051 0.508806 0.441903 
0.633387 0.650023 0.258800 
0.465423 0.680616 0.266650 
0.608256 0.574798 0.138101 
0.491162 0.197590 0.193257 
0.666105 0.556142 0.602413 
0.431935 0.629787 0.605991 
0.684957 0.649064 0.520260 
0.423932 0.580945 0.527495 
0.634657 0.645509 0.262073 
0.357545 0.397538 0.374020 
0.682272 0.344391 0.376656 
0.537117 0.741019 0.821829 
0.681327 0.677946 0.524455 
0.464775 0.687346 0.401003 
0.651952 0.698789 0.374033 
0.430703 0.563696 0.304343 
0.563292 0.296751 0.462320 
0.642490 0.580740 0.337767 
0.502926 0.699831 0.153385 
0.421449 0.357922 0.398304 
0.676027 0.703047 0.481586 
0.429803 0.659322 0.189234 
0.356557 0.323565 0.301668 
0.470211 0.695032 0.164610 
0.445366 0.692008 0.161561 
0.596284 0.234477 0.136224 
0.496703 0.762197 0.837072 
0.545945 0.754373 0.560468 
0.330074 0.434171 0.323157 
0.339713 0.490115 0.169997 
0.360357 0.357219 0.348048 
0.470697 0.724391 0.538122 
0.668176 0.548762 0.403617 
0.498205 0.399132 0.561456 
0.469386 0.715241 0.445458 
0.417290 0.560599 0.446060 
0.421504 0.371022 0.409951 
0.612692 0.668074 0.754627 
0.414968 0.658246 0.493257 
0.414614 0.518921 0.475911 
0.376582 0.325920 0.348087 
0.434307 0.424805 0.482493 
0.391040 0.241293 0.105959 
0.687854 0.482450 0.355915 
0.478923 0.684164 0.224673 
0.366076 0.616376 0.775101 
0.527678 0.307509 0.487827 
0.420362 0.235226 0.199672 
0.672154 0.354900 0.175418 
0.601318 0.731764 0.393186 
0.502972 0.546952 0.669515 
0.462654 0.286474 0.402425 
0.437207 0.672612 0.552495 
0.359966 0.714068 0.772167 
0.413851 0.568491 0.436164 
0.678805 0.681930 0.557496 
0.625015 0.240459 0.219980 
0.657927 0.686445 0.371816 
0.494669 0.682356 0.348792 
0.625884 0.344030 0.453052 
0.639162 0.740285 0.514328 
0.338088 0.678554 0.650532 
0.424996 0.226836 0.194393 
0.496276 0.557778 0.729541 
0.668950 0.716807 0.561260 
0.654335 0.400469 0.474874 
0.655152 0.475792 0.171098 
0.471525 0.377268 0.506518 
0.429803 0.670135 0.390357 
0.428673 0.660021 0.197879 
0.532721 0.752024 0.817919 
0.674470 0.700742 0.454616 
0.508419 0.195700 0.157245 
0.629193 0.708896 0.684206 
0.423910 0.605846 0.829119 
0.672722 0.557071 0.416128 
0.405222 0.609279 0.650092 
0.368315 0.292982 0.220556 
0.513230 0.771398 0.691144 
0.678159 0.334696 0.370820 
0.608507 0.236436 0.171418 
0.693889 0.329101 0.244308 
0.495607 0.734011 0.467397 
0.627224 0.377997 0.506275 
0.682087 0.635575 0.577050 
0.462704 0.788413 0.864318 
0.604045 0.686092 0.761323 
0.359232 0.729561 0.707489 
0.646313 0.713684 0.643176 
0.302212 0.364677 0.149862 
0.599727 0.613031 0.749637 
0.601650 0.753653 0.565335 
0.404951 0.593732 0.801822 
0.502591 0.765163 0.671549 
0.663878 0.645441 0.340300 
0.640435 0.733774 0.430175 
0.419901 0.668393 0.445665 
0.648021 0.575917 0.345452 
0.595035 0.576579 0.712609 
0.671826 0.648871 0.375781 
0.540127 0.759000 0.708188 
0.587002 0.729954 0.753454 
0.519882 0.713797 0.839969 
0.457607 0.706941 0.604663 
0.538218 0.759784 0.641877 
0.598874 0.560190 0.224550 
0.405478 0.633259 0.483960 
0.700527 0.471997 0.308053 
0.590485 0.692318 0.177370 
0.679719 0.663365 0.441152 
0.666799 0.387336 0.164942 
0.646940 0.285863 0.128965 
0.432588 0.661206 0.322860 
0.409673 0.395931 0.402564 
0.523904 0.199207 0.183661 
0.356827 0.487007 0.242928 
0.701549 0.399207 0.370288 
0.358298 0.308380 0.285393 
0.412549 0.530581 0.247051 
0.483474 0.672736 0.854544 
0.646015 0.502120 0.169022 
0.445489 0.574489 0.217964 
0.666146 0.517376 0.301390 
0.416876 0.653559 0.283707 
0.422879 0.707725 0.630096 
0.431195 0.555224 0.260040 
0.528019 0.691028 0.301478 
0.450052 0.276602 0.374413 
0.466328 0.385142 0.504061 
0.428336 0.644257 0.195288 
0.427709 0.586168 0.553302 
0.489122 0.786075 0.821048 
0.602384 0.757786 0.513454 
0.634562 0.728030 0.407086 
0.681274 0.566400 0.506307 
0.302242 0.329059 0.124086 
0.541186 0.266323 0.421863 
0.663325 0.520170 0.352659 
0.291635 0.372831 0.136577 
0.535886 0.763200 0.715842 
0.522262 0.711057 0.403850 
0.680111 0.329136 0.354851 
0.348905 0.538787 0.147945 
0.671406 0.693274 0.425278 
0.344768 0.630724 0.701705 
0.430039 0.632870 0.613555 
0.456534 0.209271 0.204000 
0.414993 0.659989 0.458371 
0.481952 0.692251 0.400249 
0.450693 0.396496 0.488354 
0.388886 0.610725 0.127368 
0.591230 0.425510 0.592258 
0.432963 0.591821 0.266912 
0.353559 0.682311 0.739063 
0.384420 0.745462 0.675227 
0.592210 0.599924 0.748371 
0.527782 0.746439 0.476824 
0.393507 0.525192 0.268998 
0.666262 0.575487 0.615118 
0.695676 0.339057 0.277728 
0.411943 0.538230 0.358509 
0.633566 0.254565 0.179339 
0.557749 0.747845 0.715466 
0.472523 0.367151 0.498194 
0.699213 0.434420 0.263276 
0.403224 0.624634 0.140950 
0.489143 0.789013 0.772315 
0.614782 0.452379 0.601152 
0.457621 0.580814 0.662534 
0.357022 0.718634 0.679722 
0.694892 0.344242 0.324690 
0.406974 0.614101 0.169226 
0.469562 0.563658 0.697044 
0.298729 0.345508 0.119461 
0.376215 0.274030 0.192206 
0.658014 0.460167 0.172581 
0.443204 0.775798 0.692927 
0.450447 0.198712 0.172152 
0.571897 0.595631 0.169354 
0.454447 0.557152 0.894753 
0.333087 0.655678 0.704832 
0.696515 0.463946 0.366513 
0.604574 0.237700 0.148183 
0.676334 0.670159 0.399550 
0.636958 0.740673 0.449696 
0.512886 0.749552 0.628138 
0.491796 0.203216 0.238039 
0.418416 0.533005 0.248131 
0.362428 0.678645 0.783651 
0.635242 0.440419 0.563336 
0.355295 0.715381 0.756601 
0.647262 0.495320 0.210846 
0.680656 0.685924 0.512020 
0.404622 0.716361 0.639302 
0.646445 0.498653 0.595509 
0.337097 0.284838 0.151046 
0.555002 0.213016 0.150978 
0.438181 0.612573 0.605923 
0.437687 0.559743 0.768954 
0.673676 0.536329 0.551765 
0.680741 0.476635 0.385639 
0.430173 0.672625 0.396277 
0.572975 0.759316 0.570422 
0.465654 0.698364 0.423532 
0.380430 0.595767 0.782544 
0.625848 0.578466 0.684063 
0.615494 0.677324 0.240328 
0.373019 0.288311 0.223027 
0.656641 0.662379 0.669392 
0.492413 0.739136 0.600008 
0.480894 0.353796 0.498763 
0.666667 0.679488 0.384674 
0.680876 0.540541 0.489119 
0.492481 0.731532 0.452581 
0.460233 0.558809 0.622837 
0.407002 0.601000 0.390665 
0.481468 0.557738 0.865459 
0.476054 0.216847 0.275722 
0.321154 0.336207 0.157789 
0.550104 0.710570 0.230040 
0.495438 0.447418 0.586071 
0.440013 0.773790 0.804087 
0.424071 0.242523 0.211613 
0.617567 0.728412 0.395059 
0.439995 0.242241 0.302958 
0.394934 0.264956 0.278261 
0.634538 0.381134 0.496514 
0.492942 0.741775 0.616917 
0.680140 0.594673 0.576765 
0.457504 0.213532 0.209907 
0.427070 0.503163 0.526833 
0.397125 0.753968 0.678898 
0.425428 0.614897 0.225722 
0.708899 0.395862 0.329590 
0.629222 0.575615 0.679082 
0.515802 0.680927 0.308606 
0.543716 0.349327 0.540269 
0.445823 0.275636 0.368337 
0.606924 0.710950 0.330263 
0.403478 0.626305 0.153005 
0.637654 0.395672 0.507853 
0.616514 0.313054 0.420990 
0.415267 0.573595 0.390153 
0.672335 0.707554 0.574852 
0.685141 0.497113 0.305582 
0.425147 0.344392 0.392571 
0.676852 0.628009 0.605118 
0.454949 0.551969 0.607682 
0.688345 0.319946 0.299259 
0.469267 0.551655 0.880552 
0.362870 0.246798 0.119888 
0.396231 0.238357 0.166100 
0.661268 0.454412 0.167466 
0.435914 0.205240 0.151903 
0.393614 0.318487 0.356072 
0.451251 0.233096 0.295340 
0.619628 0.284556 0.376402 
0.430293 0.549312 0.242241 
0.409350 0.410968 0.411165 
0.442174 0.686625 0.849661 
0.574129 0.741669 0.721582 
0.458615 0.310920 0.415804 
0.289801 0.409348 0.135051 
0.608348 0.538322 0.213643 
0.397464 0.261574 0.247752 
0.413112 0.610057 0.329572 
0.628555 0.588950 0.685760 
0.578866 0.598738 0.759441 
0.382541 0.265460 0.179952 
0.303410 0.434690 0.154072 
0.470058 0.557561 0.732640 
0.386120 0.236491 0.126985 
0.563557 0.755512 0.475068 
0.645336 0.680640 0.331169 
0.397367 0.574076 0.749678 
0.543522 0.525470 0.669546 
0.460408 0.370483 0.481090 
0.644959 0.712451 0.375416 
0.598296 0.289642 0.417376 
0.579788 0.722419 0.775834 
0.467445 0.715845 0.559515 
0.525036 0.457000 0.618623 
0.421303 0.560724 0.379307 
0.433048 0.561705 0.770090 
0.414260 0.525473 0.204566 
0.380325 0.729781 0.658573 
0.337964 0.440131 0.269728 
0.683325 0.491879 0.273587 
0.464940 0.786829 0.862677 
0.464007 0.622615 0.868255 
0.592318 0.444796 0.606449 
0.619609 0.551825 0.159851 
0.682762 0.600635 0.565469 
0.629243 0.330637 0.423361 
0.348996 0.680602 0.718975 
0.369510 0.283085 0.181043 
0.386479 0.761677 0.730948 
0.457352 0.712325 0.531508 
0.489851 0.764740 0.674289 
0.528200 0.508426 0.653423 
0.513107 0.697392 0.848466 
0.506516 0.742561 0.599312 
0.329670 0.393816 0.299046 
0.520105 0.696869 0.205316 
0.331965 0.512245 0.114749 
0.691274 0.480800 0.344252 
0.406935 0.773424 0.770735 
0.374478 0.627753 0.640312 
0.694425 0.334287 0.268498 
0.624084 0.607851 0.298771 
0.614232 0.677092 0.233132 
0.531372 0.461692 0.623637 
0.475480 0.701175 0.419183 
0.455501 0.782074 0.708528 
0.659583 0.435438 0.511767 
0.428958 0.577562 0.684637 
0.401875 0.511715 0.405077 
0.678874 0.699841 0.532239 
0.688581 0.321825 0.310050 
0.354869 0.709656 0.710198 
0.301681 0.466566 0.120439 
0.335816 0.416405 0.226621 
0.424150 0.715613 0.633508 
0.410084 0.586937 0.383197 
0.499328 0.681490 0.339902 
0.365335 0.601482 0.750356 
0.665115 0.632013 0.366766 
0.452767 0.491073 0.565240 
0.488346 0.203727 0.124009 
0.382429 0.281357 0.283940 
0.400090 0.632395 0.445189 
0.555027 0.755235 0.641035 
0.679166 0.560543 0.474082 
0.689793 0.415480 0.228243 
0.570769 0.226708 0.304635 
0.436917 0.240208 0.295744 
0.583422 0.751360 0.609408 
0.681002 0.677972 0.516832 
0.328184 0.407114 0.301051 
0.466299 0.544984 0.825080 
0.410856 0.641097 0.324534 
0.617956 0.584519 0.699267 
0.525690 0.468419 0.626384 
0.341293 0.683527 0.650388 
0.601070 0.249024 0.329539 
0.620469 0.717934 0.692840 
0.448751 0.377665 0.468507 
0.332979 0.516435 0.119226 
0.447024 0.728360 0.131365 
0.358166 0.684012 0.640977 
0.570932 0.748417 0.431504 
0.442578 0.515785 0.565793 
0.478833 0.385686 0.523216 
0.631460 0.442700 0.570752 
0.637676 0.549537 0.305118 
0.653491 0.724331 0.580733 
0.423110 0.241547 0.234919 
0.354181 0.309541 0.228883 
0.492874 0.195683 0.179677 
0.324372 0.656589 0.683737 
0.347205 0.346734 0.307052 
0.470754 0.558783 0.645307 
0.529315 0.306546 0.487743 
0.457068 0.214503 0.210613 
0.673438 0.667885 0.611723 
0.403276 0.603041 0.417396 
0.409599 0.778548 0.730111 
0.646524 0.264411 0.188696 
0.623020 0.674864 0.733450 
0.676070 0.527288 0.528171 
0.628099 0.247101 0.196199 
0.356467 0.329538 0.308204 
0.701267 0.423057 0.371996 
0.684287 0.419556 0.403175 
0.680064 0.659062 0.449189 
0.641392 0.307681 0.382032 
0.498981 0.267679 0.414218 
0.690646 0.481938 0.344419 
0.423504 0.761736 0.872392 
0.600478 0.696051 0.268298 
0.679305 0.701065 0.514609 
0.488737 0.204153 0.248245 
0.611174 0.616764 0.730891 
0.687821 0.315347 0.278868 
0.649612 0.572464 0.346022 
0.447204 0.263422 0.362161 
0.456492 0.680068 0.279694 
0.434785 0.691998 0.440869 
0.677605 0.488206 0.470570 
0.460581 0.798472 0.840113 
0.540672 0.748811 0.467154 
0.641215 0.448388 0.561435 
0.422302 0.564476 0.481732 
0.608059 0.404520 0.567523 
0.613714 0.726777 0.386785 
0.602575 0.344434 0.503325 
0.427387 0.465299 0.502527 
0.655641 0.515337 0.262894 
0.608592 0.357350 0.511989 
0.448118 0.685712 0.596900 
0.514679 0.542162 0.677230 
0.403951 0.595406 0.170625 
0.419335 0.781736 0.769602 
0.423149 0.566347 0.389206 
0.675633 0.317365 0.186983 
0.576763 0.678413 0.813162 
0.364395 0.508744 0.338376 
0.615300 0.641236 0.216121 
0.606680 0.627621 0.224421 
0.418106 0.608109 0.291346 
0.701015 0.362344 0.246076 
0.540576 0.749337 0.470506 
0.441355 0.725366 0.129756 
0.672308 0.708630 0.489408 
0.397952 0.230604 0.119111 
0.442482 0.373024 0.452273 
0.458151 0.699293 0.431438 
0.572048 0.451111 0.619896 
0.634152 0.702427 0.679852 
0.565492 0.601145 0.780062 
0.374190 0.546229 0.171133 
0.538505 0.241339 0.369379 
0.419441 0.716121 0.112618 
0.663485 0.721206 0.556600 
0.639173 0.623928 0.310577 
0.450025 0.433851 0.513473 
0.637445 0.247420 0.262080 
0.420375 0.364428 0.402872 
0.460404 0.269007 0.383254 
0.342380 0.520917 0.111291 
0.607170 0.750586 0.468646 
0.612253 0.754149 0.541657 
0.596355 0.354983 0.525634 
0.459638 0.693434 0.168217 
0.423936 0.659928 0.621605 
0.398181 0.381787 0.393639 
0.628692 0.560346 0.668596 
0.640777 0.543700 0.306901 
0.568434 0.232538 0.325813 
0.623542 0.287501 0.376607 
0.652007 0.632355 0.682707 
0.393221 0.220692 0.145127 
0.676235 0.473771 0.438213 
0.431651 0.667026 0.177953 
0.476457 0.242307 0.342995 
0.390519 0.576785 0.749359 
0.501919 0.198133 0.196247 
0.593707 0.219797 0.251136 
0.443191 0.467190 0.527835 
0.500980 0.194034 0.167427 
0.641161 0.651537 0.698589 
0.435642 0.568177 0.279205 
0.502263 0.466778 0.605225 
0.342364 0.349744 0.273554 
0.668640 0.618018 0.396145 
0.610297 0.535865 0.211991 
0.626975 0.595085 0.304697 
0.404103 0.631411 0.376161 
0.437739 0.793991 0.875004 
0.615577 0.706221 0.320859 
0.416736 0.555081 0.395220 
0.435195 0.670040 0.371940 
0.679196 0.586428 0.573551 
0.644823 0.429118 0.535833 
0.350797 0.466952 0.180587 
0.370753 0.748414 0.720683 
0.627877 0.627670 0.704946 
0.651942 0.531738 0.135630 
0.557241 0.711580 0.228031 
0.464321 0.713055 0.600470 
0.654008 0.584452 0.651592 
0.434442 0.722234 0.125127 
0.595409 0.627258 0.764721 
0.704602 0.408207 0.276653 
0.402737 0.621902 0.398507 
0.385621 0.582886 0.152582 
0.629546 0.733830 0.610810 
0.648114 0.264146 0.197803 
0.378082 0.502131 0.372203 
0.637589 0.247488 0.257250 
0.686139 0.446804 0.234220 
0.436568 0.738883 0.860292 
0.439132 0.580910 0.280755 
0.416423 0.538213 0.316737 
0.523598 0.470506 0.627137 
0.461331 0.780323 0.702468 
0.659424 0.380933 0.426320 
0.373801 0.287132 0.271590 
0.639917 0.266918 0.147104 
0.662067 0.443726 0.141667 
0.651715 0.603456 0.357381 
0.634536 0.263103 0.142804 
0.449884 0.339863 0.430609 
0.528159 0.731048 0.830190 
0.380720 0.590787 0.686540 
0.648247 0.259924 0.223960 
0.404781 0.715229 0.828251 
0.436760 0.229046 0.236984 
0.454444 0.273918 0.378649 
0.611022 0.525363 0.189186 
0.671251 0.285056 0.241435 
0.647998 0.710173 0.380015 
0.446605 0.236060 0.298398 
0.507682 0.749612 0.632912 
0.429330 0.670146 0.196257 
0.634580 0.518868 0.223273 
0.590576 0.449600 0.610739 
0.471083 0.233641 0.320434 
0.701256 0.440223 0.371130 
0.609497 0.721421 0.712612 
0.437916 0.669667 0.279949 
0.504640 0.243895 0.375887 
0.580328 0.756108 0.478976 
0.336678 0.426850 0.250509 
0.611840 0.678918 0.225530 
0.458430 0.717863 0.610804 
0.539652 0.237915 0.362477 
0.376962 0.517243 0.293927 
0.417387 0.743535 0.851852 
0.455903 0.779838 0.874875 
0.457359 0.567050 0.687554 
0.685589 0.308723 0.268854 
0.340743 0.412430 0.354859 
0.700861 0.464095 0.337808 
0.546806 0.740045 0.811355 
0.469427 0.782995 0.857949 
0.350226 0.706307 0.690985 
0.705371 0.420536 0.352193 
0.537085 0.311368 0.494837 
0.453618 0.792919 0.752651 
0.443745 0.675803 0.589548 
0.660196 0.494834 0.573296 
0.473686 0.534163 0.623856 
0.517027 0.719059 0.419201 
0.430519 0.575558 0.548557 
0.610432 0.228510 0.251612 
0.317142 0.320783 0.151463 
0.406162 0.480232 0.432834 
0.337523 0.369884 0.248001 
0.356167 0.647072 0.637021 
0.592305 0.698919 0.260099 
0.302358 0.398624 0.154545 
0.452627 0.219121 0.217124 
0.426136 0.600671 0.653393 
0.544595 0.541916 0.686469 
0.614684 0.241870 0.162940 
0.450461 0.453524 0.525811 
0.402700 0.774090 0.724926 
0.492322 0.317542 0.476601 
0.385959 0.600646 0.670395 
0.475016 0.687351 0.202322 
0.678490 0.626418 0.598807 
0.615713 0.577529 0.128177 
0.620679 0.432368 0.577618 
0.679639 0.303728 0.306788 
0.410875 0.643346 0.339092 
0.383323 0.230805 0.136168 
0.618337 0.342407 0.466519 
0.411934 0.491173 0.463940 
0.678978 0.615455 0.453233 
0.595513 0.226531 0.283382 
0.442921 0.212534 0.194466 
0.327051 0.343010 0.163968 
0.404608 0.529019 0.301930 
0.547344 0.223539 0.308214 
0.574162 0.705131 0.226442 
0.417423 0.534472 0.276693 
0.544613 0.206948 0.248917 
0.427178 0.458343 0.496934 
0.409903 0.640052 0.363628 
0.677132 0.636449 0.436228 
0.571081 0.236667 0.338191 
0.369158 0.513976 0.179187 
0.480177 0.294532 0.437219 
0.604063 0.683068 0.764216 
0.439650 0.214720 0.193927 
0.690000 0.420210 0.229680 
0.689034 0.410081 0.396143 
0.582485 0.220695 0.169988 
0.486962 0.738963 0.620918 
0.490759 0.240501 0.359399 
0.669932 0.507256 0.538538 
0.471017 0.203047 0.126667 
0.505525 0.584365 0.831299 
0.304940 0.329303 0.142249 
0.427663 0.668909 0.394032 
0.416545 0.568788 0.775268 
0.676728 0.545851 0.437007 
0.418164 0.710425 0.127501 
0.477076 0.594248 0.876405 
0.353049 0.479241 0.356215 
0.679610 0.445778 0.409585 
0.531619 0.592396 0.810650 
0.665125 0.713771 0.459752 
0.310856 0.343979 0.104764 
0.488510 0.266324 0.403010 
0.665120 0.616713 0.640964 
0.677410 0.630300 0.439463 
0.459584 0.694389 0.422879 
0.336273 0.369382 0.203231 
0.667679 0.616182 0.394651 
0.577754 0.599283 0.761477 
0.701263 0.355563 0.281525 
0.486611 0.787603 0.753397 
0.415624 0.510004 0.479692 
0.608958 0.294860 0.406281 
0.496109 0.502492 0.621921 
0.339647 0.663437 0.712543 
0.455120 0.542478 0.838639 
0.586375 0.758468 0.533419 
0.577199 0.472289 0.633370 
0.684327 0.592443 0.521946 
0.418762 0.595020 0.181307 
0.597056 0.693215 0.137286 
0.380175 0.283503 0.283325 
0.351066 0.464749 0.191818 
0.649363 0.258323 0.270877 
0.431795 0.673717 0.393964 
0.518955 0.644776 0.847935 
0.678233 0.319461 0.341763 
0.641681 0.612858 0.327563 
0.565812 0.383492 0.569563 
0.396188 0.524487 0.252325 
0.527057 0.243352 0.377813 
0.338341 0.433368 0.228286 
0.418374 0.554841 0.378449 
0.428567 0.601756 0.559466 
0.554176 0.594829 0.783155 
0.385548 0.550637 0.174577 
0.359047 0.728744 0.718648 
0.508093 0.778913 0.732628 
0.436285 0.692097 0.516308 
0.488558 0.202164 0.228683 
0.661965 0.587703 0.637251 
0.437176 0.559596 0.226518 
0.521749 0.247979 0.390099 
0.495798 0.680048 0.327261 
0.460862 0.778775 0.699852 
0.454235 0.381763 0.482127 
0.407146 0.628206 0.491033 
0.665453 0.370425 0.139582 
0.666825 0.538838 0.391530 
0.587703 0.630122 0.777966 
0.469029 0.514126 0.601066 
0.413603 0.478245 0.460364 
0.404113 0.658480 0.832861 
0.475922 0.680088 0.272050 
0.617778 0.675502 0.247472 
0.675653 0.677217 0.585528 
0.431558 0.693340 0.149609 
0.349887 0.317625 0.191310 
0.431588 0.679938 0.157334 
0.662047 0.696390 0.617467 
0.546051 0.707712 0.178158 
0.575466 0.603253 0.187261 
0.703307 0.417296 0.274969 
0.426220 0.504006 0.523073 
0.368198 0.317465 0.318693 
0.639529 0.486816 0.595396 
0.496413 0.775160 0.695562 
0.422231 0.663462 0.396630 
0.684134 0.594007 0.527660 
0.302069 0.334096 0.119767 
0.510832 0.553551 0.695661 
0.407773 0.647294 0.467982 
0.460383 0.613042 0.876500 
0.647662 0.527812 0.274699 
0.395407 0.580261 0.170734 
0.509343 0.704135 0.152226 
0.681224 0.569371 0.506926 
0.511117 0.389474 0.562714 
0.692217 0.326069 0.259023 
0.644456 0.735588 0.527659 
0.598578 0.758997 0.543037 
0.376796 0.330666 0.354398 
0.567195 0.216589 0.154943 
0.394471 0.293685 0.331910 
0.419487 0.512312 0.494887 
0.592348 0.701441 0.138942 
0.339141 0.386526 0.332610 
0.514461 0.565688 0.754773 
0.410986 0.650637 0.422683 
0.505173 0.288816 0.449911 
0.419302 0.535999 0.496800 
0.704751 0.445053 0.298591 
0.497198 0.557768 0.732466 
0.604639 0.663540 0.156984 
0.509972 0.730999 0.116480 
0.372184 0.521465 0.178372 
0.433611 0.595233 0.878832 
0.496348 0.262215 0.402052 
0.396894 0.664659 0.827966 
0.624585 0.599669 0.695079 
0.464052 0.298309 0.414453 
0.429832 0.651816 0.119156 
0.320361 0.381141 0.166148 
0.406006 0.528644 0.332968 
0.571134 0.617178 0.162371 
0.662029 0.402407 0.433854 
0.443225 0.567798 0.204559 
0.569569 0.609929 0.159764 
0.499424 0.788234 0.792349 
0.366403 0.508384 0.290686 
0.669004 0.712161 0.484719 
0.678894 0.533877 0.520657 
0.390160 0.583106 0.776584 
0.381466 0.571364 0.120218 
0.628337 0.519507 0.213036 
0.391978 0.696604 0.819211 
0.451921 0.789987 0.740297 
0.615426 0.235309 0.202046 
0.659698 0.576855 0.383284 
0.682868 0.348414 0.380158 
0.358619 0.499555 0.286434 
0.548184 0.732776 0.426006 
0.425650 0.763966 0.677438 
0.382071 0.226734 0.143876 
0.443063 0.597830 0.621942 
0.620305 0.731425 0.656663 
0.563661 0.284034 0.442645 
0.426215 0.521401 0.526042 
0.346369 0.337686 0.240621 
0.633318 0.260708 0.317830 
0.446172 0.690494 0.546685 
0.436577 0.227554 0.244979 
0.494342 0.738766 0.594879 
0.381184 0.550456 0.173007 
0.491885 0.202339 0.229357 
0.460694 0.250921 0.343002 
0.675904 0.473768 0.434615 
0.454124 0.356326 0.455669 
0.403234 0.461115 0.429513 
0.631088 0.475516 0.597707 
0.472685 0.756790 0.663705 
0.519573 0.221098 0.322436 
0.680173 0.473683 0.245579 
0.451707 0.206560 0.136980 
0.674165 0.295220 0.305143 
0.639104 0.344777 0.422994 
0.372508 0.417705 0.391986 
0.477996 0.294015 0.432966 
0.624422 0.505518 0.630333 
0.628605 0.562976 0.297178 
0.662724 0.554746 0.379962 
0.339309 0.364290 0.223929 
0.418627 0.546318 0.334392 
0.486237 0.679514 0.324156 
0.575890 0.717319 0.328178 
0.516033 0.778826 0.752496 
0.289079 0.405322 0.125068 
0.361657 0.241913 0.145750 
0.371618 0.631141 0.791503 
0.678233 0.318889 0.340681 
0.457223 0.384586 0.490005 
0.344846 0.634241 0.706837 
0.434738 0.569516 0.294361 
0.359958 0.648616 0.635708 
0.540591 0.703052 0.292162 
0.415519 0.598110 0.178301 
0.343248 0.339100 0.183419 
0.373186 0.599434 0.679065 
0.507630 0.714865 0.139694 
0.644040 0.575955 0.337573 
0.422720 0.591654 0.304853 
0.408731 0.617840 0.495682 
0.408401 0.588327 0.463140 
0.612852 0.576195 0.263865 
0.469643 0.222004 0.283861 
0.520595 0.263540 0.424428 
0.480002 0.738953 0.627770 
0.590293 0.303095 0.458631 
0.599548 0.579967 0.233481 
0.464568 0.406038 0.515741 
0.374292 0.591144 0.768822 
0.455647 0.803325 0.815269 
0.340180 0.445140 0.221733 
0.675428 0.636393 0.403824 
0.526784 0.203643 0.146168 
0.550975 0.310326 0.489026 
0.683714 0.660705 0.546343 
0.552900 0.249902 0.382183 
0.427593 0.382966 0.431649 
0.500961 0.732073 0.447566 
0.654351 0.528464 0.126716 
0.421605 0.535684 0.259349 
0.504581 0.679815 0.323442 
0.423519 0.568141 0.189006 
0.353057 0.710086 0.717483 
0.368111 0.605808 0.727214 
0.355922 0.642602 0.758874 
0.442934 0.801245 0.842335 
0.658093 0.286506 0.335191 
0.548957 0.755453 0.788507 
0.506082 0.682777 0.350504 
0.662277 0.439907 0.127280 
0.311249 0.495091 0.129953 
0.414724 0.296802 0.352524 
0.668192 0.342814 0.389850 
0.661580 0.452684 0.120493 
0.643838 0.640215 0.295350 
0.547331 0.709891 0.256063 
0.669403 0.312134 0.352502 
0.541206 0.579290 0.776460 
0.423514 0.663162 0.148588 
0.621307 0.429150 0.573981 
0.381499 0.582570 0.751532 
0.390954 0.288421 0.316886 
0.669375 0.654187 0.637694 
0.670212 0.461643 0.477253 
0.488705 0.680935 0.336805 
0.667610 0.514616 0.559002 
0.428631 0.618746 0.560514 
0.465221 0.729757 0.115835 
0.659427 0.443093 0.185288 
0.392464 0.625467 0.637773 
0.665591 0.670896 0.633102 
0.443110 0.746890 0.868870 
0.606077 0.568007 0.244663 
0.331457 0.419963 0.278021 
0.580128 0.572218 0.160800 
0.419085 0.520702 0.493475 
0.621705 0.509867 0.637483 
0.423436 0.492834 0.509984 
0.668634 0.646228 0.363432 
0.685423 0.307708 0.263195 
0.675363 0.420802 0.199370 
0.439611 0.698184 0.453734 
0.463102 0.245093 0.333518 
0.298449 0.450426 0.120255 
0.616240 0.572004 0.141835 
0.323002 0.498089 0.159509 
0.583658 0.527950 0.670451 
0.432504 0.705886 0.628006 
0.580742 0.706396 0.788962 
0.664042 0.325560 0.141003 
0.388975 0.309889 0.346769 
0.485583 0.194963 0.166050 
0.429369 0.667432 0.195092 
0.459576 0.739999 0.865233 
0.535364 0.703570 0.347849 
0.431951 0.723068 0.112800 
0.614948 0.586480 0.706320 
0.386848 0.258499 0.185420 
0.560524 0.214759 0.150704 
0.357069 0.616248 0.698470 
0.488641 0.203626 0.243076 
0.546751 0.754386 0.710405 
0.701332 0.434235 0.274089 
0.424398 0.661637 0.384087 
0.673687 0.503217 0.362775 
0.640492 0.687066 0.682736 
0.677831 0.691460 0.443125 
0.584276 0.257652 0.375189 
0.432934 0.640339 0.848151 
0.422933 0.510323 0.509061 
0.583133 0.748884 0.618825 
0.577531 0.629168 0.145996 
0.468144 0.710610 0.148325 
0.600125 0.752308 0.573861 
0.433918 0.659206 0.586779 
0.581603 0.693911 0.796424 
0.518328 0.701024 0.389323 
0.421288 0.666533 0.408647 
0.412847 0.609921 0.645979 
0.413119 0.549698 0.403346 
0.420239 0.606711 0.532599 
0.451184 0.790498 0.742249 
0.528528 0.415258 0.591686 
0.466267 0.743493 0.861842 
0.701262 0.395988 0.252751 
0.673136 0.554561 0.417008 
0.626345 0.613493 0.297006 
0.680089 0.521482 0.469510 
0.572906 0.720226 0.335123 
0.406550 0.725568 0.645145 
0.334296 0.411253 0.247381 
0.408511 0.635229 0.340114 
0.628535 0.716875 0.366590 
0.492964 0.675841 0.853033 
0.437566 0.523569 0.559628 
0.424935 0.664356 0.390105 
0.543585 0.714054 0.364777 
0.379854 0.268512 0.185628 
0.479184 0.559815 0.711286 
0.593853 0.617676 0.762369 
0.515529 0.770888 0.693362 
0.367963 0.605428 0.681421 
0.652568 0.369398 0.428528 
0.635429 0.592090 0.324345 
0.585264 0.701856 0.258243 
0.572837 0.536430 0.679140 
0.663061 0.433670 0.137225 
0.598101 0.747509 0.447555 
0.380293 0.757040 0.738842 
0.490456 0.584757 0.862230 
0.428850 0.597104 0.560158 
0.656074 0.473411 0.561111 
0.672539 0.712638 0.546921 
0.338087 0.335415 0.171537 
0.657228 0.326957 0.385140 
0.588418 0.505969 0.653869 
0.488208 0.563075 0.686832 
0.608530 0.328887 0.464866 
0.425773 0.531907 0.207023 
0.651663 0.528122 0.311165 
0.422642 0.603916 0.183050 
0.487714 0.689776 0.391547 
0.506279 0.690511 0.850934 
0.619696 0.590828 0.699528 
0.412396 0.253453 0.213139 
0.428532 0.624885 0.560497 
0.430759 0.659946 0.182310 
0.422294 0.393463 0.427347 
0.478198 0.557508 0.791389 
0.458291 0.688466 0.209217 
0.344081 0.482810 0.281614 
0.672690 0.323747 0.365330 
0.669083 0.507480 0.377032 
0.563889 0.606494 0.124042 
0.570992 0.615910 0.165673 
0.546943 0.757001 0.730496 
0.347821 0.336101 0.294997 
0.411099 0.698247 0.629540 
0.459856 0.702553 0.158427 
0.570222 0.219064 0.147430 
0.470549 0.236392 0.325082 
0.349659 0.321179 0.201030 
0.523946 0.694039 0.254687 
0.479709 0.712207 0.431960 
0.435676 0.561303 0.777069 
0.611520 0.593578 0.717197 
0.640068 0.743081 0.474377 
0.376341 0.425831 0.395378 
0.510328 0.745354 0.536447 
0.407402 0.760639 0.788917 
0.436894 0.725757 0.113246 
0.566196 0.237169 0.341853 
0.626801 0.362565 0.482126 
0.533432 0.696790 0.321744 
0.661582 0.412985 0.447508 
0.509504 0.202976 0.134162 
0.420887 0.605814 0.534666 
0.462517 0.209790 0.228455 
0.523640 0.692258 0.843728 
0.565987 0.757343 0.521219 
0.678378 0.517755 0.448029 
0.637802 0.502620 0.610099 
0.425040 0.360585 0.407608 
0.665001 0.667589 0.363232 
0.356303 0.614455 0.681686 
0.567706 0.601890 0.143735 
0.398654 0.749733 0.671794 
0.357856 0.302708 0.227905 
0.675551 0.571116 0.430559 
0.371276 0.242937 0.120049 
0.332773 0.421342 0.333556 
0.471384 0.221139 0.283366 
0.458556 0.734341 0.636924 
0.419059 0.753195 0.810724 
0.550895 0.711924 0.278545 
0.556123 0.713404 0.251075 
0.471744 0.719401 0.456110 
0.343488 0.344622 0.284241 
0.527313 0.699739 0.358631 
0.667589 0.483927 0.529602 
0.661515 0.451894 0.165400 
0.484650 0.208149 0.257535 
0.362075 0.729186 0.693394 
0.681052 0.541452 0.491996 
0.675350 0.688527 0.574934 
0.392599 0.657562 0.822107 
0.610615 0.736102 0.637344 
0.671855 0.580863 0.415761 
0.506626 0.718174 0.846677 
0.444088 0.782049 0.706226 
0.447650 0.677551 0.337624 
0.411366 0.643744 0.495821 
0.477300 0.722831 0.591026 
0.671275 0.643636 0.630818 
0.603913 0.709827 0.324200 
0.451256 0.270804 0.371006 
0.633504 0.456910 0.579834 
0.365973 0.391278 0.383750 
0.562128 0.672436 0.824098 
0.659621 0.312373 0.136041 
0.471692 0.722604 0.484659 
0.316256 0.500185 0.125722 
0.612344 0.744843 0.582880 
0.647837 0.554890 0.637779 
0.426208 0.449040 0.486603 
0.672786 0.585978 0.418595 
0.379467 0.269247 0.189441 
0.385753 0.602214 0.141083 
0.447568 0.802265 0.798530 
0.679280 0.370401 0.194890 
0.445763 0.594604 0.634532 
0.634056 0.285031 0.364334 
0.312929 0.315178 0.114720 
0.383657 0.285188 0.294380 
0.395004 0.270011 0.217487 
0.412807 0.435016 0.438352 
0.433699 0.663355 0.558288 
0.593278 0.593088 0.737153 
0.336426 0.369265 0.204814 
0.302423 0.336099 0.118556 
0.412853 0.648412 0.496363 
0.692364 0.371277 0.380476 
0.360072 0.701556 0.774161 
0.371453 0.536300 0.173029 
0.663781 0.565123 0.617135 
0.631528 0.243124 0.255080 
0.431681 0.392206 0.447068 
0.685660 0.400041 0.398540 
0.601978 0.577063 0.133668 
0.637500 0.359497 0.454092 
0.399015 0.516280 0.203735 
0.606391 0.690866 0.239477 
0.533290 0.519306 0.662125 
0.390961 0.640090 0.632419 
0.649934 0.530602 0.311845 
0.557497 0.684730 0.825184 
0.617581 0.731844 0.665651 
0.646577 0.643922 0.295784 
0.627457 0.655160 0.247956 
0.635277 0.545598 0.648216 
0.676258 0.569952 0.572255 
0.472637 0.682074 0.247807 
0.331609 0.403159 0.180050 
0.606298 0.236832 0.162566 
0.629877 0.736708 0.575748 
0.642425 0.736486 0.440467 
0.677219 0.645053 0.423696 
0.444379 0.219186 0.203969 
0.442686 0.725096 0.850588 
0.351474 0.490664 0.279476 
0.517246 0.355825 0.535659 
0.702083 0.379441 0.256758 
0.364495 0.743728 0.732656 
0.440122 0.585661 0.847264 
0.469279 0.747764 0.644345 
0.420333 0.243600 0.284146 
0.659460 0.655911 0.661868 
0.692595 0.471683 0.363724 
0.685087 0.305271 0.248649 
0.679646 0.630148 0.453469 
0.432224 0.707156 0.628248 
0.434682 0.594841 0.842618 
0.488809 0.335018 0.493037 
0.554612 0.271132 0.425353 
0.623559 0.692465 0.714457 
0.515119 0.508676 0.646677 
0.656066 0.727180 0.504939 
0.529021 0.737986 0.122445 
0.632174 0.269924 0.337197 
0.440286 0.205932 0.183579 
0.466656 0.792656 0.757774 
0.526458 0.625491 0.840725 
0.472843 0.549632 0.832534 
0.427318 0.562393 0.752879 
0.460485 0.518623 0.596743 
0.591790 0.717544 0.340989 
0.489200 0.605980 0.862356 
0.705381 0.425336 0.290056 
0.428666 0.660722 0.198156 
0.417540 0.661984 0.414601 
0.600650 0.376791 0.546006 
0.521762 0.743180 0.468367 
0.393777 0.523418 0.340265 
0.616525 0.697108 0.723583 
0.647605 0.549723 0.327469 
0.433507 0.656642 0.568273 
0.673250 0.451052 0.425868 
0.387788 0.523523 0.277142 
0.610208 0.408046 0.569349 
0.465416 0.532497 0.614202 
0.421850 0.565354 0.761180 
0.507728 0.543664 0.670858 
0.525617 0.770728 0.718240 
0.527279 0.647393 0.844584 
0.457160 0.561027 0.617843 
0.365097 0.635677 0.778428 
0.346688 0.337513 0.226805 
0.480046 0.464518 0.572856 
0.343844 0.336541 0.181835 
0.527839 0.530782 0.669390 
0.370569 0.743920 0.706017 
0.483232 0.780295 0.706566 
0.652896 0.670622 0.336582 
0.526591 0.341413 0.524298 
0.511913 0.291363 0.457427 
0.648594 0.716519 0.633831 
0.372234 0.749752 0.718643 
0.428193 0.679938 0.423991 
0.422304 0.533203 0.234398 
0.528428 0.755399 0.530619 
0.630849 0.658093 0.262029 
0.598051 0.612369 0.752217 
0.587552 0.221185 0.184236 
0.465634 0.745791 0.643676 
0.451124 0.699088 0.545476 
0.534991 0.746727 0.465154 
0.455589 0.798416 0.852654 
0.425084 0.629941 0.123706 
0.334147 0.407134 0.212277 
0.618880 0.242424 0.292569 
0.430003 0.569239 0.338084 
0.337873 0.636704 0.699175 
0.445911 0.256231 0.335987 
0.608764 0.744447 0.603659 
0.327520 0.650564 0.676930 
0.694954 0.455174 0.379044 
0.449126 0.689702 0.555184 
0.572987 0.381865 0.567059 
0.417559 0.569911 0.400938 
0.416817 0.533422 0.484176 
0.466834 0.349683 0.470786 
0.432452 0.600102 0.833639 
0.443894 0.599934 0.202791 
0.393376 0.574542 0.171328 
0.340654 0.319499 0.170517 
0.331074 0.659972 0.663119 
0.609185 0.691193 0.256884 
0.498060 0.686493 0.191654 
0.607663 0.228277 0.216343 
0.547592 0.753600 0.599174 
0.648376 0.397175 0.490879 
0.613242 0.522600 0.655020 
0.447691 0.564921 0.864941 
0.309865 0.448866 0.157333 
0.525673 0.692093 0.327694 
0.684271 0.633109 0.481656 
0.612593 0.588786 0.712293 
0.611227 0.650503 0.181954 
0.427112 0.394867 0.438900 
0.676368 0.578936 0.580248 
0.543809 0.417088 0.597459 
0.338282 0.431148 0.204214 
0.655160 0.511652 0.145187 
0.425409 0.566873 0.503858 
0.513099 0.403669 0.576117 
0.572060 0.707018 0.160332 
0.658720 0.493174 0.138743 
0.605549 0.626262 0.224678 
0.506769 0.206883 0.265260 
0.655681 0.276657 0.175856 
0.367981 0.562971 0.142832 
0.601669 0.545577 0.676802 
0.681879 0.544334 0.504903 
0.339289 0.364214 0.237324 
0.413907 0.635584 0.300011 
0.618305 0.705763 0.321389 
0.298308 0.347883 0.139640 
0.378049 0.229744 0.143984 
0.681659 0.558291 0.534459 
0.615488 0.232644 0.234382 
0.363928 0.619973 0.651694 
0.337559 0.460362 0.305248 
0.522047 0.256532 0.408578 
0.421902 0.568273 0.786347 
0.639909 0.370502 0.467396 
0.458593 0.781485 0.706708 
0.643670 0.599393 0.346157 
0.588552 0.586433 0.729181 
0.507804 0.766687 0.674240 
0.574069 0.602419 0.182080 
0.622780 0.562981 0.283605 
0.500681 0.778000 0.706838 
0.563135 0.601448 0.121006 
0.381737 0.657049 0.811656 
0.558390 0.283959 0.444620 
0.676585 0.304851 0.318455 
0.391184 0.600900 0.667840 
0.333467 0.381593 0.281256 
0.553374 0.757349 0.539536 
0.393037 0.394977 0.396774 
0.438035 0.560128 0.774583 
0.660735 0.637838 0.656820 
0.591845 0.580413 0.132771 
0.652665 0.693178 0.647898 
0.431751 0.789485 0.752278 
0.459192 0.717776 0.515706 
0.478420 0.552427 0.647855 
0.420397 0.548905 0.492348 
0.356643 0.633114 0.728301 
0.590126 0.566425 0.206363 
0.386079 0.520172 0.260532 
0.454363 0.522510 0.591729 
0.677192 0.579660 0.576913 
0.417000 0.371457 0.400371 
0.333890 0.676775 0.695701 
0.575764 0.470619 0.632817 
0.408331 0.505308 0.451002 
0.684403 0.643434 0.480016 
0.360094 0.696392 0.643830 
0.673122 0.693294 0.430959 
0.694719 0.348422 0.333440 
0.526728 0.697846 0.352550 
0.469264 0.684530 0.230933 
0.680488 0.512721 0.471195 
0.643341 0.256420 0.219054 
0.337459 0.467898 0.317705 
0.639582 0.729844 0.598258 
0.584027 0.604039 0.207306 
0.418716 0.626995 0.262715 
0.368842 0.484912 0.189192 
0.588689 0.263968 0.380695 
0.597371 0.397904 0.569124 
0.439092 0.682207 0.542183 
0.510684 0.522638 0.649800 
0.664681 0.376069 0.133558 
0.544711 0.707076 0.175899 
0.670375 0.283838 0.242413 
0.556951 0.714081 0.261850 
0.587647 0.320372 0.487248 
0.357928 0.710056 0.667575 
0.697555 0.340378 0.243794 
0.617287 0.460393 0.604093 
0.473289 0.258734 0.378783 
0.670858 0.573641 0.596932 
0.561750 0.737108 0.796031 
0.700415 0.372038 0.349509 
0.631863 0.559193 0.663303 
0.530675 0.573465 0.769551 
0.682733 0.564167 0.535136 
0.598850 0.312917 0.458828 
0.638892 0.347965 0.430231 
0.407243 0.524575 0.220578 
0.434999 0.700515 0.146022 
0.670596 0.640283 0.381431 
0.445811 0.678948 0.563786 
0.385347 0.591542 0.782655 
0.327287 0.422230 0.172246 
0.530297 0.715554 0.407541 
0.365474 0.649271 0.781904 
0.658087 0.421620 0.491979 
0.407704 0.626927 0.165956 
0.456138 0.344019 0.446303 
0.553529 0.710855 0.211426 
0.432726 0.586002 0.572231 
0.406821 0.522842 0.411717 
0.547372 0.709995 0.824332 
0.472515 0.552117 0.809756 
0.644696 0.491758 0.178975 
0.637532 0.571544 0.122832 
0.405129 0.584108 0.685664 
0.410746 0.764530 0.687371 
0.394555 0.525457 0.296761 
0.610238 0.710598 0.331591 
0.433209 0.550854 0.199174 
0.690718 0.409032 0.229060 
0.377377 0.295396 0.301219 
0.585118 0.378974 0.559813 
0.609791 0.240412 0.152195 
0.458298 0.733029 0.863793 
0.333398 0.656019 0.658734 
0.623090 0.539001 0.249470 
0.469993 0.562542 0.702351 
0.523310 0.730049 0.434226 
0.686801 0.309239 0.254613 
0.319160 0.308856 0.148371 
0.505562 0.293183 0.455891 
0.501028 0.249273 0.382562 
0.423562 0.660623 0.383981 
0.472963 0.198556 0.192960 
0.353176 0.487708 0.261447 
0.651193 0.387128 0.469439 
0.668718 0.308779 0.171169 
0.647445 0.666760 0.315925 
0.562752 0.712696 0.253213 
0.526634 0.550718 0.693068 
0.682681 0.669297 0.543084 
0.636142 0.521163 0.167033 
0.536630 0.707305 0.359472 
0.511045 0.201238 0.217851 
0.449793 0.799812 0.859022 
0.389274 0.258393 0.174333 
0.440783 0.215281 0.195761 
0.451683 0.198211 0.167877 
0.496439 0.683488 0.230128 
0.679470 0.497276 0.278342 
0.486665 0.557645 0.739997 
0.683535 0.501469 0.320031 
0.348787 0.533791 0.160174 
0.664283 0.507616 0.264985 
0.548247 0.760709 0.764566 
0.417304 0.544858 0.473804 
0.407375 0.725380 0.644793 
0.349720 0.623816 0.655684 
0.413585 0.550011 0.414886 
0.491057 0.365057 0.527421 
0.489079 0.735085 0.576877 
0.306167 0.426260 0.156772 
0.678600 0.687389 0.551749 
0.339078 0.362238 0.295089 
0.424358 0.744393 0.653348 
0.465017 0.569271 0.641745 
0.563503 0.224513 0.301666 
0.428014 0.710628 0.134417 
0.564813 0.722327 0.801340 
0.452826 0.548401 0.823582 
0.677444 0.675864 0.574370 
0.383447 0.596073 0.138992 
0.436500 0.680786 0.164189 
0.481881 0.685882 0.384826 
0.645891 0.716443 0.383489 
0.392017 0.515381 0.219686 
0.466105 0.645211 0.860912 
0.430606 0.234447 0.237187 
0.662322 0.432916 0.122339 
0.469295 0.778633 0.861047 
0.394407 0.265028 0.277249 
0.611214 0.551756 0.162857 
0.662290 0.618847 0.650998 
0.435626 0.782699 0.710004 
0.481559 0.775658 0.844206 
0.512780 0.772618 0.810734 
0.556279 0.708479 0.183719 
0.688934 0.359656 0.379488 
0.424076 0.531002 0.204627 
0.473611 0.677577 0.308673 
0.595210 0.755042 0.572915 
0.487374 0.717149 0.432667 
0.506534 0.222006 0.332156 
0.437597 0.720885 0.843718 
0.676480 0.578986 0.444649 
0.291313 0.420302 0.136948 
0.337755 0.299872 0.159984 
0.666659 0.678801 0.622151 
0.705595 0.446220 0.345527 
0.345905 0.306725 0.171068 
0.525920 0.611504 0.832645 
0.382337 0.238136 0.125267 
0.482334 0.455044 0.571400 
0.653895 0.605047 0.666461 
0.666196 0.445565 0.476554 
0.340788 0.631599 0.693911 
0.667331 0.590045 0.404698 
0.470634 0.718923 0.457392 
0.660478 0.494305 0.572440 
0.414851 0.512321 0.476709 
0.525293 0.339585 0.521753 
0.491810 0.571230 0.851912 
0.422061 0.435272 0.462080 
0.491954 0.559743 0.682400 
0.398782 0.614068 0.439055 
0.581881 0.745165 0.426426 
0.429464 0.677017 0.411307 
0.561841 0.668243 0.824330 
0.452441 0.227823 0.279997 
0.363430 0.318146 0.310591 
0.406329 0.499864 0.443043 
0.423859 0.314096 0.369990 
0.442226 0.220625 0.203585 
0.593137 0.697750 0.124011 
0.658802 0.270270 0.231817 
0.601127 0.719633 0.354713 
0.703641 0.451703 0.355196 
0.333685 0.381184 0.277158 
0.416563 0.524979 0.195435 
0.563239 0.637465 0.807535 
0.445179 0.574809 0.221975 
0.367009 0.293476 0.247780 
0.468008 0.549458 0.632821 
0.524156 0.257695 0.410225 
0.668014 0.548410 0.403165 
0.618677 0.623036 0.258906 
0.498389 0.745493 0.626587 
0.656638 0.689619 0.373011 
0.704045 0.460964 0.304860 
0.512941 0.730635 0.839411 
0.586198 0.702610 0.271279 
0.575189 0.755507 0.465955 
0.678932 0.356069 0.390128 
0.474760 0.624119 0.860418 
0.341074 0.467207 0.337122 
0.682436 0.548542 0.514602 
0.620452 0.654118 0.224598 
0.589634 0.549122 0.189337 
0.687802 0.322925 0.219393 
0.409212 0.598863 0.375346 
0.396962 0.607429 0.807941 
0.653789 0.657166 0.677029 
0.670071 0.461564 0.214080 
0.419197 0.653409 0.842084 
0.636209 0.498964 0.609274 
0.490245 0.762813 0.842528 
0.363210 0.257443 0.108185 
0.432928 0.620556 0.615768 
0.299634 0.460100 0.122134 
0.452144 0.711302 0.480598 
0.343015 0.337283 0.175951 
0.382563 0.577375 0.153092 
0.329068 0.425531 0.315348 
0.681752 0.647273 0.576075 
0.683556 0.630793 0.568636 
0.664271 0.542164 0.376802 
0.464294 0.787642 0.863186 
0.427020 0.560845 0.325472 
0.654954 0.498613 0.228481 
0.681878 0.411309 0.404719 
0.537948 0.503336 0.653424 
0.383501 0.583879 0.721374 
0.565499 0.607386 0.131192 
0.354197 0.429532 0.373552 
0.484793 0.558615 0.781513 
0.440283 0.701287 0.469300 
0.503694 0.737115 0.465397 
0.670065 0.678402 0.613491 
0.630132 0.435502 0.566575 
0.589130 0.589483 0.734946 
0.683361 0.610251 0.556503 
0.410217 0.542994 0.186772 
0.295038 0.383696 0.147061 
0.630971 0.504402 0.195551 
0.694808 0.426143 0.241950 
0.428230 0.663591 0.202337 
0.438200 0.791800 0.755687 
0.423548 0.676423 0.485508 
0.668741 0.304440 0.172240 
0.591044 0.625668 0.195280 
0.435659 0.680313 0.399947 
0.343985 0.345985 0.248194 
0.657249 0.496803 0.579236 
0.435079 0.608677 0.631062 
0.486894 0.688774 0.390766 
0.677801 0.486811 0.447659 
0.630193 0.679245 0.286600 
0.309132 0.355066 0.152822 
0.527558 0.230634 0.350158 
0.648984 0.266188 0.299002 
0.459092 0.551489 0.814296 
0.290555 0.383459 0.128423 
0.609193 0.614244 0.255713 
0.556998 0.537679 0.683937 
0.637689 0.344529 0.427204 
0.342091 0.626434 0.658482 
0.400578 0.632885 0.439405 
0.708395 0.414438 0.301452 
0.615918 0.379845 0.528131 
0.342369 0.272168 0.148716 
0.614350 0.728723 0.393550 
0.343614 0.339117 0.188331 
0.596406 0.336658 0.501868 
0.547804 0.397993 0.583166 
0.333362 0.514990 0.116585 
0.586277 0.744701 0.639480 
0.673339 0.660307 0.620958 
0.349449 0.462140 0.189778 
0.459263 0.771951 0.688964 
0.560403 0.758525 0.609963 
0.367168 0.627577 0.781495 
0.345016 0.694587 0.694892 
0.457550 0.266775 0.376912 
0.582668 0.270709 0.408686 
0.538664 0.722384 0.414408 
0.477419 0.564824 0.674567 
0.418505 0.741874 0.854764 
0.567667 0.388586 0.573982 
0.654126 0.704252 0.630933 
0.606263 0.741667 0.616898 
0.350523 0.706384 0.729050 
0.546675 0.237982 0.360781 
0.403448 0.613166 0.403643 
0.641156 0.743124 0.463774 
0.660452 0.487559 0.129371 
0.664664 0.498471 0.559664 
0.462453 0.390083 0.501598 
0.617414 0.711813 0.706369 
0.639388 0.257285 0.193053 
0.611580 0.689136 0.245690 
0.441880 0.580198 0.598955 
0.659141 0.280503 0.316284 
0.615019 0.560975 0.263962 
0.623468 0.510289 0.189051 
0.345888 0.667092 0.640664 
0.615485 0.242471 0.162362 
0.676629 0.505535 0.296618 
0.586819 0.757233 0.583747 
0.689318 0.461130 0.255838 
0.538601 0.444779 0.614562 
0.472084 0.692460 0.409137 
0.455676 0.525392 0.595675 
0.610191 0.731014 0.700261 
0.492831 0.744246 0.625436 
0.422347 0.347553 0.390886 
0.464831 0.354979 0.472788 
0.382587 0.488752 0.394015 
0.707716 0.410802 0.339334 
0.430943 0.660406 0.348053 
0.480917 0.682962 0.361987 
0.408546 0.675214 0.626197 
0.571390 0.710571 0.287321 
0.369060 0.650959 0.633032 
0.631579 0.744173 0.542248 
0.409042 0.581120 0.688182 
0.576408 0.570678 0.714102 
0.442877 0.800492 0.841827 
0.610452 0.703763 0.308573 
0.683722 0.664812 0.488325 
0.414646 0.451071 0.456516 
0.615512 0.574402 0.698166 
0.633978 0.726668 0.402241 
0.490299 0.686740 0.192684 
0.435009 0.324673 0.392414 
0.504690 0.680372 0.328562 
0.355864 0.696171 0.763171 
0.423835 0.625480 0.222938 
0.631845 0.657023 0.263256 
0.657611 0.726417 0.485480 
0.527351 0.531162 0.669750 
0.593622 0.599935 0.747030 
0.403976 0.614725 0.166775 
0.579543 0.296849 0.455657 
0.664728 0.286282 0.314595 
0.603419 0.758079 0.520159 
0.425457 0.550467 0.290333 
0.634516 0.587390 0.320526 
0.611604 0.700944 0.729365 
0.690484 0.326519 0.302085 
0.443112 0.800719 0.839742 
0.408368 0.618079 0.637397 
0.511381 0.744531 0.566486 
0.400398 0.622684 0.162789 
0.644307 0.514859 0.161356 
0.432899 0.704533 0.627736 
0.538853 0.754060 0.552613 
0.539245 0.752541 0.561227 
0.542865 0.752179 0.803173 
0.428239 0.593149 0.189038 
0.668228 0.461613 0.495101 
0.466043 0.714166 0.558681 
0.411070 0.619771 0.172547 
0.459377 0.543059 0.611604 
0.680857 0.370479 0.394853 
0.392478 0.523689 0.322252 
0.311635 0.308290 0.127698 
0.703242 0.464564 0.309083 
0.444568 0.222195 0.236720 
0.427097 0.681002 0.439001 
0.436606 0.567706 0.267729 
0.469173 0.718835 0.557789 
0.456684 0.499565 0.576239 
0.333463 0.412302 0.253997 
0.640196 0.730585 0.585856 
0.390810 0.261564 0.202002 
0.536575 0.573231 0.756046 
0.444548 0.706685 0.497758 
