65.300102 -209.584000 -1576.099976 
-94.882599 -305.177002 -1697.849976 
-74.859703 -137.419006 -1611.069946 
65.352600 -33.869900 -1608.000000 
32.058800 -223.042007 -1682.880005 
-189.315994 -271.381012 -1553.339966 
-91.654297 64.173500 -1615.239990 
-103.330002 -29.264299 -1595.849976 
157.460999 -267.820007 -1650.869995 
34.293598 73.317802 -1581.229980 
-69.793602 -70.023903 -1645.569946 
-157.917999 -287.411011 -1543.819946 
4.456950 -256.279999 -1525.189941 
-69.248596 -300.688995 -1692.859985 
62.417801 -4.189470 -1575.109985 
-218.214005 -368.673004 -1667.459961 
-38.136700 -366.595001 -1490.699951 
5.770840 71.690598 -1536.420044 
129.535995 -360.056000 -1528.010010 
-12.240700 -62.948601 -1489.719971 
-13.935800 -49.509701 -1474.160034 
-121.359001 -198.789993 -1661.800049 
23.060301 -61.784199 -1679.709961 
52.592400 -26.831400 -1672.199951 
-28.218201 -114.363998 -1650.760010 
15.045100 -63.678001 -1660.229980 
-53.153900 13.708700 -1719.579956 
140.167007 -311.730988 -1544.510010 
-78.080498 -69.357903 -1628.989990 
23.717600 -64.299698 -1654.969971 
-7.520320 -50.569000 -1688.750000 
149.576004 -231.628006 -1618.739990 
4.726600 -15.113000 -1507.569946 
61.739899 -33.361099 -1615.130005 
29.511200 -354.720001 -1706.660034 
25.175100 80.505402 -1594.239990 
57.029400 -24.757700 -1588.270020 
-133.522003 -344.239014 -1697.630005 
192.841995 -400.908997 -1635.540039 
-234.212006 -360.759003 -1535.810059 
-30.518400 81.498497 -1549.420044 
-59.806400 -145.903000 -1648.849976 
57.675400 -51.564899 -1669.050049 
6.308040 -264.915985 -1690.089966 
-39.784599 -98.265404 -1648.790039 
3.816190 56.377102 -1517.000000 
34.951000 -211.955994 -1561.150024 
109.469002 -334.027008 -1691.790039 
-73.800598 18.294201 -1528.660034 
205.184006 -322.506989 -1590.599976 
59.487000 -34.590199 -1614.510010 
43.830601 -51.801399 -1597.959961 
16.244699 -64.965599 -1659.500000 
-79.514397 -346.821014 -1494.140015 
-64.671700 -67.414101 -1659.699951 
-59.127800 -120.994003 -1564.319946 
-0.292186 66.878998 -1685.989990 
-58.207298 -100.205002 -1522.699951 
39.543598 54.699402 -1545.359985 
-39.630798 0.405875 -1731.260010 
45.191101 60.957001 -1584.130005 
13.827900 -163.074005 -1657.000000 
23.601200 -222.307999 -1682.099976 
11.986600 -330.380005 -1495.569946 
125.638000 -296.790009 -1547.469971 
0.467432 -22.817101 -1506.650024 
-126.782997 -196.378006 -1595.400024 
-7.422320 38.091702 -1705.260010 
207.257004 -384.354004 -1616.410034 
-11.323300 -111.165001 -1501.410034 
-25.324600 10.714800 -1730.709961 
-54.668701 48.597198 -1691.280029 
-159.434998 -242.720001 -1558.900024 
-36.972698 -314.566986 -1498.839966 
48.851501 58.943699 -1603.390015 
-24.931900 -53.462101 -1488.119995 
41.815102 71.371498 -1650.910034 
0.956794 29.880301 -1715.670044 
-4.206810 -317.569000 -1703.119995 
28.026899 -21.053900 -1723.920044 
134.684998 -324.016998 -1534.660034 
-243.514008 -361.031006 -1637.760010 
68.164803 -187.927994 -1610.189941 
29.020800 77.080597 -1581.439941 
162.792007 -328.958008 -1540.219971 
-41.160099 -47.591999 -1701.099976 
20.655500 -27.203501 -1723.729980 
-74.919197 32.542900 -1682.780029 
-112.827003 -304.953003 -1695.680054 
-87.981102 -384.269989 -1493.089966 
-74.030800 86.022598 -1622.069946 
-25.640301 -146.078995 -1553.380005 
132.636002 -333.230988 -1533.969971 
-65.638397 -317.691010 -1498.250000 
-81.836098 -22.179899 -1540.359985 
161.376999 -292.578003 -1561.989990 
-0.483450 -313.302002 -1499.599976 
-6.291510 -200.955994 -1558.819946 
155.729996 -300.882996 -1659.040039 
8.516090 87.924400 -1593.449951 
30.222401 -225.472000 -1548.020020 
-28.782400 -388.355011 -1482.069946 
-23.346500 -220.052002 -1545.180054 
58.967098 -18.621099 -1610.849976 
-101.596001 -23.567699 -1612.750000 
-90.654297 -205.054001 -1570.040039 
-38.669701 11.750700 -1499.459961 
200.070007 -346.053986 -1566.949951 
-195.733002 -379.553986 -1517.900024 
-10.831100 -188.369995 -1561.349976 
-164.533005 -251.880005 -1554.739990 
-78.546799 -74.662102 -1584.770020 
-88.188698 -16.632200 -1691.099976 
43.599899 -357.028015 -1495.750000 
167.182999 -274.915009 -1641.280029 
126.980003 -367.746002 -1525.239990 
-118.915001 -187.936996 -1605.099976 
38.852699 65.794998 -1653.079956 
-66.393898 68.612099 -1553.750000 
58.608799 -12.327400 -1580.400024 
60.497898 -18.765699 -1610.500000 
-79.325401 -71.741402 -1545.449951 
-46.356499 -105.787003 -1512.800049 
198.507004 -323.440002 -1626.689941 
10.558300 -118.653999 -1568.719971 
49.037399 5.111820 -1671.939941 
-119.190002 -228.098999 -1559.819946 
-101.403999 -45.551701 -1656.709961 
-194.772003 -282.218994 -1551.430054 
18.215500 35.673401 -1696.369995 
33.973701 -246.869995 -1690.010010 
-46.526699 -13.817600 -1502.670044 
-192.647995 -330.362000 -1529.000000 
-67.482300 -79.930199 -1634.869995 
29.459900 -84.050598 -1607.030029 
-35.358101 91.207100 -1614.319946 
-86.741203 -373.401001 -1705.949951 
-10.290600 -2.095810 -1729.920044 
-76.431000 -15.165600 -1715.790039 
-32.544399 -103.842003 -1649.819946 
-87.560402 -26.806200 -1565.719971 
-51.482399 -50.669102 -1704.050049 
-65.974197 -34.563801 -1721.199951 
51.100899 15.737000 -1537.099976 
-64.155800 -128.080994 -1637.400024 
-205.927002 -300.272003 -1654.380005 
58.886299 35.790501 -1601.739990 
-92.249001 -207.828995 -1564.739990 
69.490601 -208.464005 -1579.849976 
-252.669998 -367.265015 -1607.540039 
-29.486000 34.465401 -1708.979980 
96.838898 -339.497986 -1522.479980 
48.077099 -39.951000 -1588.849976 
-166.149994 -329.661011 -1687.670044 
-90.253304 34.286499 -1660.880005 
5.034490 -390.221985 -1484.119995 
-62.434101 -105.075996 -1538.469971 
-86.082100 -255.192993 -1688.119995 
-4.336710 -119.029999 -1513.930054 
-86.910896 -309.273987 -1504.800049 
-63.333900 -76.449402 -1649.949951 
-98.291496 -13.380700 -1598.310059 
46.598499 -361.040985 -1500.109985 
17.012300 -306.554993 -1696.050049 
-74.138603 -308.605011 -1503.780029 
93.532097 -203.190002 -1606.239990 
46.643101 -36.609299 -1608.479980 
-24.507000 70.540802 -1529.119995 
-222.587997 -277.194000 -1627.819946 
118.379997 -229.720001 -1586.199951 
-114.068001 -307.971008 -1526.079956 
50.268002 -18.612400 -1663.310059 
62.457699 -384.136993 -1703.199951 
210.835007 -398.187012 -1590.319946 
10.262600 -250.908997 -1529.589966 
72.418297 -307.670013 -1532.719971 
-57.738701 -97.906197 -1638.760010 
41.452301 -205.320999 -1673.130005 
-74.388100 -197.453003 -1571.500000 
209.401993 -378.726990 -1597.699951 
-123.672997 -224.360992 -1675.020020 
70.854401 14.543500 -1627.099976 
93.102600 -314.567993 -1537.380005 
-112.956001 1.462240 -1631.319946 
1.098290 -18.733000 -1507.369995 
5.849110 88.313797 -1608.670044 
-182.873001 -209.020004 -1611.739990 
62.339802 23.330900 -1579.329956 
11.132500 46.234299 -1511.099976 
189.841995 -399.451996 -1547.780029 
27.538000 -149.005997 -1604.880005 
15.757600 84.667503 -1584.439941 
5.484660 -258.841003 -1688.939941 
-144.658005 -369.321991 -1696.160034 
-61.233299 -83.600502 -1641.569946 
1.938870 -83.732597 -1509.000000 
-254.401993 -366.701996 -1582.530029 
12.255300 19.570499 -1721.689941 
54.064499 9.489020 -1540.599976 
54.057701 45.958302 -1606.400024 
89.835602 -288.553009 -1687.670044 
-91.944504 -29.123699 -1585.849976 
-19.486799 -48.123901 -1478.650024 
-26.868999 89.002098 -1652.199951 
-34.976601 -253.585999 -1522.949951 
104.608002 -225.934998 -1663.119995 
-74.998497 -72.172302 -1536.199951 
-131.925003 -187.031006 -1633.979980 
205.714996 -393.885986 -1573.920044 
-100.378998 6.626420 -1576.640015 
-102.526001 10.824800 -1608.219971 
48.077000 -46.425800 -1549.619995 
-67.709999 78.218201 -1610.469971 
56.898701 -48.011200 -1589.670044 
-97.139999 -4.442040 -1599.130005 
38.500000 55.080700 -1669.020020 
-83.466797 82.363403 -1631.469971 
58.053398 -23.733500 -1586.630005 
-156.529007 -299.138000 -1542.150024 
-245.531998 -378.734985 -1547.380005 
-48.429401 -223.136002 -1682.430054 
-71.079697 -66.090897 -1525.500000 
16.452200 -286.760986 -1694.890015 
-153.481003 -348.962006 -1694.640015 
-65.715698 25.170601 -1691.400024 
-48.950802 -118.260002 -1542.800049 
26.983000 -165.475998 -1592.930054 
151.688995 -304.868988 -1549.510010 
-138.884003 -238.022995 -1560.310059 
-38.757000 -369.963013 -1706.349976 
-43.857300 -204.218002 -1677.619995 
176.477005 -301.105988 -1570.739990 
65.101303 -11.897600 -1592.479980 
-32.433399 -232.125000 -1681.670044 
58.053398 -33.156300 -1614.510010 
-101.240997 -309.546997 -1698.050049 
-96.231201 -347.234009 -1499.619995 
-242.712997 -326.345001 -1564.719971 
-117.973999 -197.602005 -1662.109985 
-94.845001 6.059160 -1662.239990 
27.834299 -94.868401 -1586.369995 
-103.208000 4.318190 -1576.380005 
-80.823303 49.046299 -1553.869995 
-19.594999 -85.779099 -1495.020020 
-199.563995 -322.118011 -1531.609985 
-82.222099 49.823601 -1559.739990 
-127.117996 -320.397003 -1695.500000 
59.896599 -22.299601 -1583.760010 
57.993599 -256.657990 -1689.900024 
20.848101 74.581299 -1555.930054 
56.258099 -16.551100 -1609.640015 
-70.453003 -119.941002 -1584.339966 
108.039001 -297.408997 -1549.030029 
20.548300 74.073898 -1662.959961 
71.721397 20.753401 -1641.229980 
-89.403603 -57.737499 -1671.510010 
159.908997 -361.851990 -1534.060059 
-42.584900 2.004740 -1730.290039 
-42.258900 -78.272598 -1503.829956 
-109.384003 -8.343170 -1618.160034 
200.927994 -342.049988 -1569.189941 
53.773800 21.472401 -1543.150024 
55.189899 55.930000 -1620.089966 
57.959301 26.410299 -1565.010010 
-27.133900 -84.145103 -1497.849976 
-97.870300 -300.286987 -1518.819946 
-79.047096 -231.494995 -1684.979980 
-98.650597 -50.036598 -1656.010010 
143.731995 -383.708008 -1528.199951 
54.924801 -31.687099 -1581.410034 
-82.577797 -292.721008 -1514.449951 
-89.222099 -12.579800 -1562.349976 
43.945999 -33.023201 -1708.579956 
-55.675999 -182.130005 -1667.780029 
1.937820 -50.363098 -1687.089966 
-127.507004 -309.292999 -1538.739990 
-52.989101 -363.878998 -1491.979980 
-88.747498 -17.865200 -1565.319946 
16.543600 22.633400 -1708.800049 
-115.342003 -349.256989 -1511.400024 
48.004398 -54.387699 -1597.439941 
-13.584000 -89.507698 -1657.660034 
-55.640701 78.830498 -1660.400024 
160.253998 -373.813995 -1533.319946 
30.412001 -78.893501 -1608.569946 
-148.481995 -314.346008 -1526.449951 
205.970993 -354.006012 -1581.770020 
-72.598999 -76.307297 -1531.560059 
-217.585999 -254.429993 -1604.729980 
74.323997 -193.125000 -1605.760010 
2.399650 91.493896 -1650.989990 
12.351200 -116.053001 -1545.500000 
-139.098999 -303.795990 -1690.069946 
-19.028200 -348.440002 -1706.089966 
-99.438904 3.100980 -1596.060059 
45.982700 -50.989101 -1544.739990 
29.411900 -97.056900 -1547.910034 
93.991203 -367.467010 -1699.380005 
-55.565201 -62.858601 -1669.869995 
51.201500 -45.850101 -1605.880005 
92.783699 -242.768005 -1564.969971 
-75.686897 -146.091995 -1620.979980 
164.830994 -297.837006 -1649.859985 
-102.101997 -307.597992 -1509.010010 
44.726299 6.251540 -1680.319946 
-29.422701 -28.818199 -1502.170044 
55.159000 -27.688299 -1579.349976 
-182.835999 -346.545013 -1684.800049 
-187.408005 -376.127991 -1685.900024 
-4.144800 -284.473999 -1692.209961 
-85.405502 -48.644699 -1596.930054 
36.074799 50.687901 -1535.420044 
-62.244400 -183.919998 -1570.979980 
-242.830002 -314.528992 -1618.030029 
19.337601 -132.729996 -1633.829956 
-72.111702 -380.739014 -1484.500000 
30.208000 -390.696991 -1483.560059 
-83.903603 -250.901001 -1687.780029 
51.499802 -46.471100 -1606.099976 
-231.593994 -384.989990 -1657.130005 
63.086300 55.324902 -1631.060059 
152.830994 -322.526001 -1539.500000 
1.681070 -48.297100 -1687.739990 
-192.867996 -241.483994 -1571.089966 
12.208100 -308.303009 -1697.390015 
-89.503998 -322.487000 -1500.699951 
26.187700 -98.300102 -1582.849976 
38.915199 -197.134003 -1581.390015 
57.848598 -24.757700 -1613.280029 
-111.139000 -190.830002 -1657.650024 
62.898399 -319.399994 -1510.560059 
27.332100 14.498000 -1702.079956 
38.783001 -83.020699 -1564.900024 
-111.417999 4.805810 -1623.099976 
-20.294701 -380.686005 -1704.729980 
-109.689003 5.333070 -1618.339966 
-6.749030 -89.013199 -1654.170044 
-21.663300 -117.771004 -1651.609985 
-79.274696 -157.567001 -1610.319946 
129.559998 -230.869995 -1650.810059 
52.241199 41.687801 -1562.369995 
63.740002 -286.153015 -1692.750000 
207.492996 -399.875000 -1608.560059 
-119.362000 -183.496002 -1620.410034 
61.125500 -14.515500 -1587.449951 
28.565100 -45.500999 -1516.810059 
162.626007 -276.528992 -1573.170044 
34.689602 45.038200 -1678.550049 
44.820900 -300.968994 -1695.760010 
-66.738602 -244.229996 -1531.709961 
-25.752600 -57.014599 -1490.489990 
-159.362000 -276.071014 -1546.119995 
109.862999 -289.859985 -1681.180054 
24.278601 -65.346802 -1658.550049 
-116.047997 -367.337006 -1506.750000 
-215.087997 -351.192993 -1526.400024 
67.115700 -204.445007 -1583.060059 
44.885899 -45.691700 -1603.199951 
-30.560400 -272.885986 -1685.229980 
-28.955601 -36.696301 -1497.540039 
-64.946404 -307.287994 -1700.589966 
47.768200 -372.519012 -1501.319946 
23.969299 -116.807999 -1614.709961 
-30.065701 79.693100 -1544.729980 
59.972198 -33.609699 -1623.599976 
-169.897003 -327.299011 -1685.849976 
-4.927370 -90.808403 -1651.250000 
-51.789200 18.852100 -1709.750000 
-113.462997 -261.019012 -1541.020020 
-93.499702 -13.696200 -1586.010010 
61.229401 25.762699 -1608.099976 
-67.504700 45.780899 -1527.829956 
-115.750000 -181.938004 -1621.180054 
-20.210899 -13.153600 -1502.290039 
-73.601700 33.508701 -1528.079956 
-43.382000 78.226997 -1668.839966 
50.437801 54.865898 -1603.650024 
-14.094600 -28.260599 -1708.339966 
18.108400 -363.804993 -1493.780029 
72.750999 -225.496994 -1676.910034 
-183.274002 -359.376007 -1518.750000 
-82.909599 77.643997 -1618.520020 
-27.771299 -12.433600 -1730.750000 
-74.700996 -145.455994 -1599.930054 
-241.205002 -306.803009 -1608.930054 
175.927002 -386.294006 -1657.010010 
-26.011801 -123.341003 -1518.660034 
58.463001 -30.903000 -1614.310059 
58.787399 16.035200 -1560.859985 
40.817799 50.685799 -1667.969971 
-69.601402 -69.593002 -1648.489990 
7.249940 -334.678986 -1704.719971 
70.022797 -294.927002 -1692.520020 
-98.210098 -48.109901 -1635.010010 
115.660004 -350.782990 -1691.280029 
56.260502 42.233799 -1582.969971 
-103.023003 -22.629000 -1589.729980 
-198.832001 -379.295013 -1518.569946 
60.306198 -386.920990 -1703.079956 
-96.861900 2.384120 -1571.599976 
77.340302 -348.626007 -1515.869995 
3.016530 13.467800 -1498.510010 
144.453995 -239.365005 -1645.829956 
-249.565994 -339.855011 -1600.660034 
-6.449280 -249.251999 -1527.119995 
-195.580002 -251.651001 -1565.510010 
78.811401 -303.592987 -1691.640015 
17.904900 -124.995003 -1632.119995 
41.765301 -214.813004 -1678.800049 
-6.006730 -188.828003 -1561.979980 
107.278999 -322.128998 -1691.540039 
46.623402 -34.269798 -1540.979980 
32.922699 -388.696014 -1488.579956 
57.018902 -48.207500 -1596.430054 
55.633499 -340.342987 -1505.300049 
-108.301003 -1.141200 -1592.339966 
33.305698 76.577904 -1651.959961 
-45.023899 -305.199005 -1502.579956 
64.610199 -11.701700 -1587.310059 
-114.226997 -332.825012 -1699.630005 
-22.549400 -5.002130 -1501.750000 
155.003998 -346.911987 -1536.640015 
1.849230 -45.989700 -1695.750000 
72.021599 -11.516000 -1628.550049 
-176.481995 -300.941986 -1669.770020 
-82.987701 -346.059998 -1705.020020 
-87.428299 -31.421101 -1579.770020 
84.352699 -355.475006 -1514.170044 
-92.936096 -15.444500 -1679.400024 
53.752602 -31.312700 -1587.859985 
-26.893101 -298.792999 -1506.270020 
136.985992 -376.359985 -1683.449951 
-96.689003 13.010400 -1580.459961 
92.604202 -296.388000 -1687.420044 
-68.822998 19.704700 -1522.609985 
8.242530 -230.029007 -1543.089966 
-24.093201 -17.790300 -1728.069946 
-75.648201 -4.985070 -1690.229980 
-39.677898 82.711304 -1556.099976 
-157.330994 -222.854004 -1574.079956 
21.419701 -70.346100 -1648.729980 
-230.048004 -288.522003 -1587.170044 
76.766701 -220.246002 -1672.329956 
-108.941002 46.319599 -1633.469971 
63.302799 -0.331503 -1581.739990 
29.684099 -59.239799 -1687.660034 
40.894501 -238.031006 -1687.709961 
208.173004 -367.256012 -1592.369995 
58.965698 -37.452000 -1673.150024 
-76.177002 -278.389008 -1516.890015 
-215.654999 -251.807007 -1624.579956 
-203.582993 -317.489014 -1668.000000 
72.084503 -291.346985 -1692.020020 
-63.387001 -59.657001 -1668.949951 
-128.520996 -213.701996 -1669.170044 
-63.539700 -27.654200 -1514.199951 
72.526604 -14.670600 -1634.829956 
108.370003 -368.132996 -1520.839966 
139.994003 -235.630997 -1646.619995 
-49.796501 -29.256100 -1507.410034 
-26.979601 -313.009003 -1498.790039 
10.696200 -384.664001 -1483.369995 
5.363470 -103.875000 -1641.349976 
11.523200 -265.015015 -1518.849976 
-1.257720 -83.869698 -1654.589966 
-86.781601 -330.287994 -1498.130005 
136.022995 -235.447998 -1588.599976 
-35.515202 -174.824997 -1559.150024 
8.689180 -86.867203 -1511.060059 
-255.697998 -377.842010 -1576.500000 
-158.910995 -357.197998 -1516.040039 
-136.201996 -271.614990 -1548.270020 
45.613499 10.371800 -1679.660034 
-23.874001 -27.253000 -1498.540039 
10.414200 55.056702 -1519.229980 
-195.565994 -294.997009 -1658.859985 
13.865400 -64.257797 -1660.699951 
-208.216003 -361.187012 -1522.540039 
-79.761002 -57.254398 -1647.020020 
-246.623993 -332.608002 -1569.770020 
-39.451199 -28.143101 -1725.540039 
-25.080500 -306.170013 -1700.040039 
-136.925995 -241.248001 -1558.239990 
201.542999 -340.183014 -1621.229980 
-11.761900 -152.216995 -1557.380005 
42.432899 71.446602 -1622.979980 
-54.200802 -198.384995 -1561.949951 
-108.874001 37.653702 -1618.619995 
-17.835600 8.397580 -1496.550049 
-26.862400 -235.516006 -1681.609985 
60.574501 -254.000000 -1540.949951 
-45.694099 -120.070000 -1538.989990 
-112.228996 -343.101990 -1701.579956 
74.510902 -315.092987 -1522.959961 
173.735992 -286.161011 -1580.729980 
69.538200 -251.261993 -1687.520020 
-107.865997 -293.407990 -1688.079956 
71.448303 19.164600 -1630.609985 
33.101398 -291.316010 -1695.319946 
-40.582298 87.484703 -1575.910034 
-22.334000 98.953697 -1626.339966 
9.290260 -55.187401 -1676.819946 
-119.727997 -367.773987 -1506.359985 
-109.379997 -11.945200 -1647.939941 
-66.723503 -128.820999 -1634.280029 
-246.664993 -320.309998 -1580.469971 
-96.162102 -50.568001 -1668.640015 
61.776299 9.214070 -1584.160034 
164.330002 -393.587006 -1533.969971 
24.974100 77.313797 -1652.500000 
15.661000 -113.863998 -1557.819946 
-25.543501 -65.697197 -1493.880005 
59.077400 -32.951500 -1614.099976 
49.889801 34.486000 -1663.150024 
-87.229301 -45.099201 -1606.369995 
-205.182999 -381.062012 -1676.589966 
-89.164803 -172.921997 -1607.520020 
57.958900 -18.158600 -1608.959961 
-252.656006 -383.291992 -1620.420044 
102.829002 -209.003006 -1604.359985 
-36.337700 -235.686005 -1533.880005 
-143.078003 -232.815002 -1564.109985 
-86.343597 60.772202 -1611.439941 
-40.889400 26.628099 -1713.280029 
-154.158997 -196.763000 -1617.109985 
-79.223602 -70.354698 -1611.609985 
-20.570700 -302.309998 -1689.790039 
-13.152300 -346.398010 -1705.770020 
16.529301 -373.692993 -1487.390015 
58.419498 -10.834900 -1604.469971 
-80.018303 -230.240005 -1544.020020 
-103.810997 -314.605988 -1505.750000 
35.183399 -382.855011 -1705.310059 
-98.265198 8.671380 -1589.150024 
57.999001 -13.258900 -1605.780029 
59.157200 -21.764999 -1586.180054 
46.033401 -46.817600 -1698.099976 
-90.176300 -29.411600 -1570.339966 
-106.071999 -27.678200 -1656.479980 
-49.218498 -12.806200 -1503.329956 
-129.048996 -309.266998 -1693.410034 
-84.247803 -379.282013 -1488.520020 
19.162600 53.065800 -1687.810059 
42.263599 38.223999 -1533.930054 
-187.863998 -340.591003 -1525.630005 
60.180099 36.379501 -1617.099976 
-85.724403 -47.629601 -1590.069946 
62.710201 -39.209702 -1654.260010 
-94.318901 -28.444901 -1588.060059 
-7.323710 -321.446991 -1703.319946 
144.375000 -264.265991 -1566.130005 
-112.507004 -14.071200 -1632.300049 
-11.710600 99.456902 -1645.479980 
-47.595901 -194.412994 -1674.209961 
186.018005 -327.009003 -1556.420044 
-91.132797 -47.174400 -1574.130005 
57.017300 -25.132299 -1588.270020 
-90.370697 -315.779999 -1502.599976 
149.787994 -292.756012 -1556.229980 
-221.300995 -262.300995 -1606.400024 
18.139000 39.581001 -1511.260010 
7.365060 -390.608002 -1484.420044 
-63.636398 -351.489990 -1492.989990 
-162.766006 -340.894989 -1522.829956 
-29.806400 -82.523598 -1498.469971 
-89.403603 -57.737499 -1671.920044 
54.854000 -251.613007 -1539.900024 
-37.103901 89.270500 -1580.869995 
51.062801 -331.928009 -1500.979980 
50.813000 -43.971901 -1605.890015 
53.769100 -4.072200 -1545.780029 
190.729004 -382.755005 -1549.910034 
-232.503998 -335.838989 -1646.180054 
-132.854004 -188.279999 -1639.000000 
-97.251297 -25.100901 -1597.260010 
-152.003006 -369.118011 -1512.849976 
-27.266899 74.461197 -1681.060059 
-146.580994 -193.766998 -1638.520020 
-127.045998 -250.584000 -1679.719971 
-82.957603 -8.799930 -1681.780029 
-217.988007 -349.510986 -1528.709961 
-93.896896 -13.355800 -1585.760010 
1.985470 -123.179001 -1550.469971 
-57.735001 71.828499 -1547.599976 
-13.714100 -348.019989 -1493.500000 
-50.957699 -255.552994 -1523.839966 
22.008400 -374.424988 -1706.770020 
-26.578400 -257.557007 -1520.839966 
-80.347099 72.437500 -1612.530029 
-121.420998 -312.514008 -1526.319946 
177.895004 -327.424011 -1656.900024 
47.126400 41.793900 -1545.170044 
-86.596497 69.139297 -1645.119995 
-98.610497 -16.239000 -1668.369995 
-105.359001 -34.053699 -1625.739990 
38.892899 -382.911987 -1705.099976 
-118.709000 -383.647003 -1503.310059 
-109.692001 -303.160004 -1694.750000 
173.826996 -344.963013 -1545.750000 
11.768300 -62.244099 -1663.719971 
109.417999 -338.052002 -1528.369995 
-207.675003 -308.480011 -1545.400024 
1.427240 -77.775902 -1503.880005 
43.098598 -14.584600 -1681.329956 
41.614601 -28.814699 -1532.729980 
-247.475006 -344.524994 -1621.060059 
131.720993 -220.822998 -1609.180054 
50.271000 54.311798 -1618.410034 
-84.376602 -54.256599 -1630.589966 
162.513000 -342.415985 -1536.579956 
-104.241997 -34.180099 -1665.579956 
-225.311005 -272.717010 -1606.949951 
42.670200 -349.936005 -1705.989990 
0.328073 -283.717010 -1509.969971 
-12.718400 -352.631989 -1492.880005 
15.715400 48.650501 -1692.469971 
6.168120 -23.676399 -1509.469971 
-202.554993 -311.070007 -1534.680054 
-173.772003 -207.998001 -1640.650024 
44.210499 -381.247009 -1498.699951 
-166.656006 -238.653000 -1562.630005 
-70.745598 -175.335007 -1580.750000 
-97.917603 -321.470001 -1502.119995 
12.892600 95.213600 -1646.449951 
-90.030899 -0.394565 -1560.290039 
-93.600700 -14.624100 -1583.770020 
56.163200 15.088100 -1657.609985 
-46.195099 -114.022003 -1519.420044 
49.794701 -44.490799 -1557.170044 
93.293900 -347.643005 -1518.959961 
-7.246130 -124.787003 -1650.839966 
-87.075600 -49.697300 -1628.959961 
-63.721699 -54.373100 -1696.150024 
45.634201 -195.417007 -1583.739990 
52.879002 -364.300995 -1505.170044 
64.728897 -13.031900 -1656.569946 
64.672600 -327.681000 -1509.640015 
-85.102798 -55.074501 -1603.439941 
38.845798 -81.828400 -1558.989990 
30.874701 77.609200 -1618.140015 
35.311199 73.291298 -1619.579956 
185.347000 -316.959991 -1571.250000 
-23.064800 -180.386993 -1559.010010 
-40.596600 88.744003 -1580.130005 
202.843002 -320.378998 -1609.270020 
-99.565598 -24.272499 -1611.180054 
189.714005 -353.212006 -1554.699951 
-96.784897 33.285301 -1586.119995 
-75.019600 -163.332993 -1591.910034 
-104.343002 -180.408005 -1646.770020 
175.811005 -293.007996 -1575.869995 
-88.661201 -24.755400 -1586.089966 
-64.555199 25.431999 -1518.750000 
45.889301 -62.385399 -1658.449951 
-69.217796 53.051201 -1536.699951 
-60.738300 -37.755001 -1720.660034 
-94.500504 -14.862300 -1573.219971 
-13.630800 -371.658997 -1485.089966 
-202.703995 -349.816986 -1523.660034 
67.657997 -288.446991 -1530.239990 
-4.762530 26.761299 -1722.660034 
-41.684299 -342.299011 -1705.589966 
-53.031700 39.466301 -1696.540039 
128.095993 -397.162994 -1686.880005 
-211.188004 -309.322998 -1542.819946 
88.722099 -380.419006 -1699.739990 
-10.568300 -5.450630 -1496.959961 
60.451000 -20.667200 -1585.800049 
96.882896 -335.360992 -1522.329956 
21.943600 -173.419006 -1658.739990 
-92.351997 -304.417999 -1510.849976 
201.266006 -332.477997 -1573.010010 
-59.523399 11.531700 -1711.229980 
185.623993 -301.618011 -1604.229980 
-89.608498 -28.854601 -1571.050049 
62.608299 11.453500 -1580.959961 
61.125500 -19.022100 -1584.579956 
-166.026001 -312.816986 -1528.780029 
-251.664001 -374.782013 -1619.329956 
1.674190 -218.445999 -1680.949951 
-6.213760 -121.981003 -1522.780029 
-233.893005 -345.264008 -1647.560059 
26.862801 55.552898 -1531.510010 
-8.028840 63.917000 -1523.619995 
132.098007 -230.817001 -1648.449951 
-204.686005 -325.269012 -1669.170044 
-3.628860 81.571404 -1664.270020 
26.869499 -48.028702 -1705.920044 
59.702599 -31.725201 -1614.400024 
203.535995 -331.761993 -1584.859985 
-87.059402 -231.203995 -1685.150024 
33.460899 6.354630 -1707.550049 
-32.032200 -81.490601 -1502.219971 
101.737999 -230.929993 -1668.170044 
38.726898 -19.253201 -1717.020020 
31.974100 -83.660004 -1591.219971 
-212.031998 -240.039001 -1612.569946 
-18.886299 -13.553100 -1727.939941 
-42.016300 85.702698 -1569.869995 
49.589199 -209.149002 -1674.089966 
-97.107300 -14.536600 -1598.530029 
-2.986280 -329.006989 -1703.920044 
59.691799 -33.361099 -1613.900024 
-66.717300 -26.215500 -1722.619995 
-91.040199 33.102299 -1571.819946 
-117.973999 -304.778992 -1532.310059 
51.692001 -43.459801 -1585.479980 
48.897598 -22.549000 -1688.239990 
47.014099 -64.884499 -1586.040039 
-24.753599 -103.010002 -1650.479980 
-123.361000 -183.927002 -1632.630005 
111.602997 -340.877014 -1691.719971 
-52.589298 -311.529999 -1500.229980 
-85.895401 -193.320999 -1580.609985 
-27.390100 24.061300 -1724.150024 
-111.658997 -327.531006 -1511.050049 
161.272995 -318.912994 -1663.099976 
-102.100998 -305.597992 -1518.560059 
-64.712997 -364.209991 -1492.380005 
56.415001 -32.541801 -1614.310059 
-230.296005 -296.717010 -1618.439941 
-207.005005 -348.989990 -1673.420044 
-125.399002 -200.889999 -1661.959961 
-26.726700 26.904100 -1722.140015 
16.485100 -71.055199 -1655.069946 
24.706600 -236.395996 -1538.780029 
65.499702 -185.386993 -1638.930054 
-90.550003 -281.088013 -1520.209961 
-20.185801 -354.687988 -1492.650024 
-66.697701 -103.328003 -1555.199951 
62.354301 -5.912130 -1595.239990 
59.723598 28.957600 -1596.260010 
38.046001 -81.732101 -1577.910034 
33.045700 -384.681000 -1705.130005 
13.835000 -45.252998 -1706.380005 
205.307007 -350.601990 -1580.060059 
87.544800 -398.187012 -1511.180054 
97.208702 -330.447998 -1523.060059 
141.944000 -359.447998 -1529.410034 
5.619580 -377.988007 -1705.359985 
-17.693501 -135.886993 -1655.579956 
53.625301 -336.006012 -1504.219971 
-205.080994 -249.266006 -1577.020020 
-177.093002 -229.927002 -1572.910034 
-170.856003 -251.802994 -1664.810059 
22.267300 -86.194000 -1625.250000 
-114.030998 -377.773987 -1503.020020 
-61.813400 -96.425400 -1525.189941 
74.936302 -384.467010 -1700.729980 
-194.218002 -348.240997 -1523.920044 
-72.376099 -21.808800 -1523.619995 
5.064370 -120.288002 -1540.910034 
-25.911900 100.289001 -1636.670044 
-52.949001 84.628700 -1653.670044 
73.800598 -219.468994 -1571.910034 
-129.865997 -343.506989 -1516.910034 
103.083000 -303.247009 -1546.089966 
-23.745399 34.611801 -1711.680054 
-95.362900 -16.381901 -1676.140015 
-151.694000 -214.052994 -1660.140015 
-11.931000 -306.510010 -1700.050049 
-70.941200 -50.399799 -1702.489990 
-93.927902 -12.357100 -1584.810059 
36.907700 -66.904297 -1667.819946 
161.362000 -364.266998 -1534.550049 
48.965401 -45.824799 -1553.880005 
32.949001 -5.420370 -1512.969971 
-96.117599 -206.572006 -1567.599976 
113.269997 -348.382996 -1527.849976 
58.411598 -23.908899 -1586.040039 
-74.349602 -104.964996 -1601.910034 
64.581001 18.016500 -1606.130005 
53.488300 -33.363098 -1690.969971 
-25.324100 -137.074997 -1551.609985 
21.880899 2.797010 -1725.589966 
-82.501999 -382.032013 -1487.650024 
-233.953995 -379.010010 -1653.569946 
-137.121994 -189.862000 -1635.010010 
1.861930 98.336899 -1633.050049 
-242.643997 -315.415009 -1567.800049 
61.776901 -360.830994 -1705.270020 
-109.517998 -356.708008 -1702.949951 
-236.774994 -377.445007 -1536.359985 
-4.583250 -226.675003 -1681.900024 
-14.289800 -306.832001 -1700.800049 
-250.617004 -369.341003 -1564.089966 
136.514999 -296.380005 -1547.430054 
50.462799 54.219601 -1607.109985 
51.472198 -3.172650 -1664.969971 
44.281399 77.392601 -1638.969971 
-240.651001 -309.592987 -1569.150024 
-74.966003 44.126598 -1679.750000 
-89.464897 -4.608080 -1562.839966 
-165.813004 -290.613007 -1544.369995 
-3.294090 -42.215698 -1694.829956 
129.207993 -276.016998 -1554.489990 
-117.608002 -293.412994 -1532.969971 
-196.932999 -236.330002 -1579.170044 
67.647598 -8.194710 -1599.189941 
56.677200 -45.910599 -1680.520020 
-254.811005 -384.470001 -1571.439941 
-242.757996 -384.779999 -1642.050049 
-253.966003 -370.614014 -1604.810059 
80.805000 -259.795013 -1548.510010 
12.372600 -306.503998 -1695.699951 
70.277298 -12.040500 -1625.170044 
-72.005997 -139.035004 -1629.300049 
-80.149902 -228.932999 -1684.280029 
108.181000 -232.934998 -1666.209961 
-33.157501 -44.282001 -1497.630005 
-112.917000 13.327100 -1635.510010 
136.813004 -268.494995 -1666.560059 
-85.878098 -23.023899 -1552.229980 
-64.201103 -247.199005 -1687.609985 
-95.957298 -17.178499 -1581.300049 
59.487000 -8.779930 -1574.329956 
-45.963902 -30.321899 -1725.140015 
-31.199699 -263.794006 -1684.550049 
-50.870602 -135.119003 -1649.780029 
58.053398 -33.361099 -1614.310059 
92.314796 -365.976990 -1516.660034 
-14.268300 -18.058500 -1723.750000 
-243.899994 -313.949005 -1571.819946 
-202.220993 -327.477997 -1671.180054 
208.572998 -395.871002 -1609.790039 
54.316200 -31.704399 -1615.430054 
-52.801300 76.594299 -1551.930054 
43.029400 13.073800 -1683.810059 
3.578100 -350.687012 -1493.930054 
-123.769997 -187.263000 -1644.910034 
-67.644699 -136.828995 -1579.949951 
49.656601 -19.022100 -1661.670044 
30.111000 -347.704987 -1495.199951 
-14.081400 -61.896801 -1487.449951 
-83.351700 -375.811005 -1488.410034 
-33.762100 -21.823099 -1727.390015 
63.325802 17.353300 -1596.560059 
-62.168301 -146.856995 -1571.819946 
-85.137001 -54.321999 -1562.510010 
54.490101 -33.927601 -1580.339966 
53.579700 -45.083900 -1586.089966 
-34.609299 -168.205002 -1558.170044 
-164.563004 -203.612000 -1603.099976 
106.265999 -327.989014 -1527.290039 
100.532997 -332.537994 -1524.010010 
-90.110001 -21.190001 -1576.099976 
-19.157200 -240.014008 -1682.339966 
-243.796997 -384.746002 -1640.459961 
-206.406006 -275.609985 -1561.380005 
58.463001 -33.156300 -1614.099976 
-78.572304 -73.160103 -1592.319946 
-176.278000 -313.725006 -1528.390015 
128.791000 -353.937988 -1530.239990 
80.434601 -319.765015 -1519.880005 
69.107597 34.060699 -1641.939941 
-203.423004 -337.876007 -1527.579956 
-193.673996 -216.908997 -1608.819946 
-214.186005 -244.667999 -1613.739990 
-12.839900 99.810898 -1637.359985 
19.787001 -151.322998 -1645.660034 
-65.752602 -15.682700 -1724.939941 
-176.029999 -288.545990 -1544.930054 
-122.839996 -347.459015 -1700.079956 
6.848810 -340.924011 -1494.530029 
-67.504700 91.540497 -1627.109985 
-29.508200 -117.384003 -1503.089966 
-44.109600 -387.696014 -1482.640015 
-67.755096 11.837300 -1694.859985 
72.525803 -336.016998 -1514.270020 
61.125500 -15.334900 -1587.859985 
17.667900 -303.987000 -1695.900024 
16.273899 -64.702202 -1659.209961 
23.578899 -159.365005 -1647.869995 
60.920700 -19.841499 -1585.599976 
-103.734001 -40.366199 -1652.239990 
-67.532600 -386.346008 -1482.579956 
180.819000 -315.899994 -1568.339966 
-252.529007 -364.893005 -1603.030029 
-61.687401 12.532800 -1514.199951 
-106.818001 -16.768900 -1594.920044 
-200.350006 -301.234009 -1663.550049 
54.203800 -276.923004 -1692.729980 
173.237000 -352.569000 -1661.219971 
76.811501 -332.230988 -1517.599976 
-38.732101 -378.971985 -1479.369995 
32.225101 -95.395103 -1562.890015 
-173.699005 -254.546005 -1555.030029 
33.305698 71.308899 -1569.729980 
24.466000 -235.542007 -1687.910034 
-109.162003 -17.698700 -1648.280029 
-14.389200 64.181900 -1690.359985 
-81.941597 -22.834900 -1710.099976 
200.664993 -324.765991 -1573.540039 
-36.182098 -110.765999 -1505.479980 
-86.786003 -16.001301 -1553.750000 
-202.725006 -232.117004 -1592.780029 
127.819000 -218.761002 -1630.800049 
-246.994003 -328.549988 -1575.790039 
19.484699 -323.454010 -1497.469971 
123.485001 -347.209015 -1529.949951 
-155.365005 -223.947006 -1663.589966 
-208.694000 -378.709991 -1674.449951 
104.458000 -274.071014 -1682.400024 
-174.738998 -215.830002 -1649.000000 
71.458603 -307.614990 -1693.520020 
105.244003 -301.752014 -1546.430054 
22.827600 -374.424988 -1706.770020 
60.272499 -207.757996 -1669.979980 
-38.894699 -160.748001 -1557.930054 
-170.802002 -301.608002 -1677.199951 
-1.527390 -381.792999 -1705.270020 
71.627998 -312.809998 -1532.069946 
56.330399 -18.207199 -1576.439941 
-29.148199 25.938601 -1498.609985 
35.413898 82.427200 -1626.979980 
27.994801 -65.355499 -1674.640015 
-74.737099 -172.069000 -1656.250000 
-30.412600 -80.401100 -1498.540039 
25.154499 -278.075012 -1694.229980 
196.145996 -388.394012 -1554.459961 
-64.626297 7.767310 -1698.040039 
-81.644096 -375.737000 -1487.359985 
-88.253899 53.131901 -1596.500000 
73.208702 -11.033200 -1630.910034 
-31.209000 15.204100 -1728.520020 
-87.810699 64.017899 -1612.540039 
17.107901 -50.557201 -1697.390015 
16.911200 -306.951996 -1507.459961 
4.823850 -90.243896 -1646.800049 
-21.044399 -298.216003 -1506.290039 
19.466600 -47.288898 -1705.000000 
-88.286201 -45.843800 -1615.930054 
177.988998 -359.791992 -1545.900024 
-132.001999 -387.739990 -1506.050049 
-96.794800 -22.932699 -1610.089966 
185.893005 -360.335999 -1649.890015 
56.444302 -310.601990 -1513.290039 
32.441898 -33.283501 -1716.719971 
11.589900 92.438004 -1649.449951 
8.763010 -302.679993 -1694.920044 
-14.192200 -22.210199 -1719.630005 
40.134499 -190.496002 -1662.459961 
-39.630901 -50.337601 -1692.280029 
36.817200 -60.700600 -1609.810059 
3.950520 -48.521400 -1685.300049 
-98.302101 5.873420 -1585.489990 
1.235660 49.930099 -1697.839966 
-37.609100 -136.686005 -1654.459961 
-7.582700 -154.242004 -1659.979980 
-47.800999 -287.157013 -1509.239990 
-117.783997 -183.363998 -1617.640015 
-112.257004 30.073400 -1630.560059 
3.627120 -116.892998 -1523.390015 
9.017780 -116.415001 -1535.310059 
59.174900 -23.214600 -1585.290039 
-16.564100 16.520300 -1727.339966 
32.566002 -17.544800 -1722.060059 
-94.311501 -358.621002 -1497.390015 
-65.132301 0.082598 -1720.560059 
57.849899 -372.511993 -1704.770020 
-103.844002 -387.205994 -1499.170044 
-14.090300 -10.009200 -1497.300049 
-171.934006 -330.838989 -1686.040039 
0.560017 -69.935600 -1664.560059 
-94.816299 -234.078995 -1546.199951 
60.244701 -9.806100 -1563.790039 
-140.354996 -234.380005 -1672.709961 
29.948500 75.612198 -1652.900024 
-17.235800 -126.865997 -1531.400024 
57.234200 -25.372299 -1587.859985 
11.856900 -368.700989 -1705.979980 
73.964203 0.845875 -1629.560059 
-26.984400 -255.126999 -1521.979980 
186.395004 -308.399994 -1588.599976 
-49.639301 -367.846008 -1706.369995 
-52.090599 88.704697 -1615.180054 
-20.708900 -233.615005 -1536.390015 
7.673670 -167.927002 -1569.869995 
26.278601 -144.444000 -1602.800049 
-95.348503 -43.877998 -1588.140015 
-226.363998 -278.302002 -1612.959961 
43.473900 -64.353302 -1584.109985 
-28.828199 4.122580 -1499.719971 
61.608799 -7.118260 -1597.719971 
-87.754501 39.038399 -1564.479980 
34.618401 -36.416599 -1523.449951 
209.606995 -397.588013 -1584.989990 
34.641602 -64.219597 -1621.660034 
29.342199 -77.318298 -1526.849976 
24.064301 -220.141006 -1554.270020 
-61.820900 -48.134998 -1511.219971 
-84.745003 -58.736401 -1607.599976 
64.115898 29.097000 -1618.290039 
26.158800 25.506100 -1696.930054 
-78.072899 80.205597 -1617.219971 
18.381901 43.349998 -1513.939941 
-162.423996 -212.408997 -1587.089966 
-139.664993 -359.467010 -1512.770020 
-91.599701 -33.985199 -1593.709961 
-92.835503 -8.168100 -1666.699951 
-13.967000 -58.921700 -1474.459961 
-246.761993 -314.371002 -1597.550049 
-90.528999 -3.830510 -1560.530029 
-72.982597 1.027030 -1527.410034 
58.250500 -180.858994 -1634.780029 
49.031399 -42.382301 -1592.109985 
-85.932404 -56.477001 -1573.589966 
-97.991798 1.907950 -1595.209961 
62.127499 -29.128901 -1622.890015 
-55.686901 81.781799 -1576.969971 
49.861401 54.721500 -1618.410034 
139.753006 -388.819000 -1525.660034 
-97.390900 -39.506401 -1590.319946 
40.552601 -279.621002 -1693.989990 
-127.669998 -313.444000 -1524.829956 
-40.800999 -305.565002 -1501.719971 
-6.254240 70.494499 -1533.319946 
128.529999 -296.020996 -1673.250000 
64.236000 -14.138200 -1618.260010 
-65.595001 -108.973999 -1569.719971 
-116.108002 -378.347992 -1503.650024 
-10.142500 -54.367802 -1473.109985 
27.872000 -41.053902 -1712.359985 
53.138199 -27.625500 -1586.010010 
-7.523820 96.799004 -1628.829956 
137.104996 -398.721008 -1524.579956 
203.615997 -354.635986 -1574.849976 
-89.961197 49.394699 -1592.339966 
45.116699 -8.992160 -1677.000000 
-2.154620 -34.126202 -1495.119995 
-73.946297 -136.529999 -1599.900024 
181.270996 -400.257996 -1650.829956 
-59.034698 73.766098 -1553.189941 
16.214300 -230.944000 -1684.800049 
194.287003 -338.078003 -1636.599976 
-25.929501 -35.801701 -1704.439941 
-158.820999 -253.371002 -1669.819946 
-116.546997 -335.769989 -1513.109985 
-4.824910 -58.385899 -1494.130005 
-62.423199 -70.754204 -1656.810059 
26.481600 -154.235001 -1639.209961 
-122.027000 -183.529999 -1636.089966 
49.560902 -286.309998 -1694.030029 
39.982300 -369.937988 -1493.719971 
64.436203 -319.976990 -1701.280029 
98.728798 -212.188995 -1653.800049 
17.118299 11.343900 -1723.699951 
63.462700 -38.347500 -1606.459961 
21.741100 45.349300 -1518.300049 
-51.318199 -47.854301 -1710.959961 
-103.301003 0.431374 -1593.670044 
109.894997 -221.242004 -1591.680054 
54.782902 -23.301300 -1663.599976 
125.405998 -216.636993 -1626.050049 
-165.589996 -387.945007 -1511.589966 
54.405201 37.532299 -1564.869995 
205.498001 -397.332001 -1618.780029 
121.677002 -217.593002 -1639.569946 
1.821430 -144.087997 -1654.150024 
97.103302 -285.770996 -1548.930054 
72.694901 -217.751999 -1672.239990 
130.621002 -220.455002 -1630.339966 
-76.905701 -19.073900 -1531.199951 
-108.918999 20.058001 -1616.170044 
26.897100 -236.789001 -1687.890015 
30.322701 -88.747498 -1588.859985 
-6.120170 -281.059998 -1511.770020 
28.685400 -63.363899 -1520.050049 
-234.095001 -384.730011 -1652.020020 
-104.721001 5.080290 -1651.219971 
-99.813202 5.156300 -1602.140015 
43.642200 -10.455000 -1679.780029 
-69.778297 -321.868011 -1497.410034 
61.808201 -2.453170 -1568.239990 
61.143002 11.293600 -1570.040039 
43.115700 -295.921997 -1695.359985 
-174.789993 -312.019989 -1680.560059 
-93.031502 39.893700 -1592.410034 
-83.259598 -61.014999 -1667.410034 
-108.033997 -311.881989 -1510.489990 
61.858898 -1.100620 -1569.510010 
-38.006401 -173.720993 -1667.089966 
-100.353996 17.194201 -1607.150024 
2.444510 -48.284100 -1687.569946 
-27.086800 49.617699 -1508.140015 
-34.773701 -262.770996 -1518.729980 
-167.731995 -366.843994 -1515.859985 
-44.712700 -18.576500 -1506.430054 
189.330994 -400.850006 -1640.750000 
174.106003 -280.463989 -1628.170044 
61.243599 -23.101200 -1593.060059 
49.667801 -48.307899 -1565.619995 
-13.140000 -123.938004 -1652.020020 
100.597000 -384.040985 -1514.770020 
57.643799 -51.182499 -1669.050049 
92.528503 -251.817001 -1681.969971 
-19.409100 -78.681297 -1491.180054 
-76.323700 67.611504 -1582.300049 
-82.471001 -55.902401 -1634.390015 
61.613400 9.266990 -1614.890015 
31.236300 -170.112000 -1597.849976 
52.714199 -183.526001 -1605.099976 
-44.917999 -132.632996 -1651.479980 
193.108994 -378.201996 -1553.410034 
64.758698 -28.030600 -1613.180054 
-226.102005 -283.114990 -1623.540039 
-109.226997 -184.919998 -1602.420044 
69.591904 -14.625200 -1601.670044 
-79.303596 -161.406998 -1641.329956 
-37.481899 -25.339100 -1506.209961 
-11.799500 -154.294006 -1660.729980 
-75.272301 -372.992004 -1706.569946 
-92.156303 -203.287003 -1672.819946 
-31.062599 -55.365501 -1686.439941 
-58.074600 -2.673130 -1726.369995 
-101.681999 -27.786900 -1678.219971 
58.053398 -24.700399 -1587.040039 
-41.696400 -343.997986 -1705.829956 
-19.831800 80.498901 -1546.479980 
59.916000 38.800800 -1651.430054 
145.862000 -230.841003 -1628.239990 
31.406300 68.641998 -1658.349976 
-249.699005 -368.785004 -1561.729980 
76.559303 -323.044006 -1516.189941 
-116.603996 -309.024994 -1524.010010 
-105.334000 -19.039499 -1656.589966 
-10.655300 -231.906006 -1538.310059 
180.757996 -320.029999 -1552.589966 
23.398199 -310.325989 -1700.900024 
29.497200 -358.763000 -1494.349976 
83.438599 -313.173004 -1695.880005 
153.292007 -267.994995 -1570.969971 
-91.044502 -24.580200 -1569.439941 
210.835007 -397.368011 -1601.390015 
42.500301 -66.200699 -1547.959961 
62.830399 -348.679993 -1704.170044 
-55.683498 -66.957397 -1666.469971 
-139.927002 -272.545990 -1548.680054 
-77.575798 -58.159599 -1648.310059 
-68.513901 -61.834400 -1673.560059 
8.086910 -89.087502 -1511.500000 
-82.252602 -16.890800 -1705.699951 
-9.822970 -88.431900 -1497.729980 
62.763901 8.426910 -1582.939941 
132.893997 -230.945999 -1592.209961 
118.238998 -213.186005 -1630.910034 
33.238300 -316.104004 -1703.270020 
-69.053200 -109.588997 -1577.180054 
-148.983002 -320.944000 -1525.449951 
-14.044600 -15.549200 -1725.530029 
60.140598 -19.637199 -1611.199951 
-202.850998 -361.704987 -1520.569946 
-67.563904 -61.160099 -1662.459961 
74.300201 -379.714996 -1510.869995 
-87.163200 -165.097000 -1627.250000 
-37.361301 90.421799 -1594.709961 
-86.640099 -43.162300 -1597.150024 
-81.143700 34.316799 -1542.479980 
-73.412300 -133.992004 -1620.469971 
-79.042702 -60.593800 -1657.510010 
-94.002502 -257.994995 -1687.349976 
-87.876801 -55.798599 -1647.020020 
-15.429800 -53.454899 -1473.150024 
200.835999 -380.359009 -1629.359985 
-28.384701 -127.689003 -1547.550049 
-17.296200 -269.036987 -1515.750000 
-155.399002 -236.626999 -1667.750000 
-73.659401 -211.673004 -1558.300049 
-38.288399 -345.924988 -1705.920044 
-209.574005 -235.869995 -1619.369995 
93.248497 -313.352997 -1542.229980 
-128.589996 -324.989990 -1521.510010 
65.309196 -15.715300 -1608.829956 
-65.665001 -85.287903 -1631.770020 
36.436501 71.696602 -1597.079956 
-26.482100 67.416801 -1526.170044 
-124.597000 -185.438995 -1620.189941 
-109.134003 -25.336800 -1636.849976 
34.127998 -378.360992 -1488.609985 
43.760300 -28.845200 -1710.040039 
-46.148102 -230.869003 -1538.560059 
-50.125198 -90.779999 -1648.189941 
-190.042999 -354.192993 -1521.739990 
49.581799 -309.997986 -1516.969971 
-17.586399 21.287500 -1726.260010 
-87.981796 -304.648010 -1698.609985 
-194.794998 -347.522003 -1679.770020 
119.222000 -274.558014 -1676.560059 
187.819000 -321.683990 -1645.560059 
20.668501 77.885101 -1562.969971 
-60.513599 -10.118300 -1726.750000 
-52.964100 85.015800 -1654.089966 
-5.942090 -58.127201 -1484.579956 
-51.523201 70.414398 -1678.160034 
-115.888000 -276.135010 -1684.380005 
-73.397301 67.180199 -1658.020020 
-143.132004 -346.932007 -1515.579956 
-84.234802 -53.091400 -1594.619995 
-45.018398 -116.914001 -1523.369995 
-82.557098 -41.908401 -1703.800049 
-170.641006 -202.826996 -1619.689941 
65.695999 -296.058990 -1693.400024 
29.020901 64.424500 -1545.119995 
156.612000 -372.984985 -1533.260010 
200.970993 -375.006989 -1628.469971 
47.403801 -284.908997 -1694.670044 
-182.820999 -244.294998 -1563.520020 
-55.406601 -62.039200 -1670.069946 
-121.652000 -289.670013 -1536.599976 
59.250401 -15.364200 -1615.400024 
3.754880 -331.420990 -1704.530029 
-42.644001 -369.412994 -1486.199951 
96.889397 -378.101013 -1698.119995 
-214.108994 -329.066986 -1663.339966 
-79.900398 -67.975601 -1602.989990 
-47.308899 -45.206299 -1712.979980 
-87.037903 53.049400 -1653.770020 
-71.010300 -109.917999 -1619.900024 
-78.134804 -75.123199 -1600.430054 
-65.934196 38.964100 -1524.380005 
-26.849899 -304.480011 -1505.219971 
-35.963699 -361.130005 -1491.489990 
51.318199 -177.904007 -1617.119995 
-55.961399 -42.931801 -1717.530029 
-196.843994 -337.864014 -1525.000000 
207.772003 -380.606995 -1614.699951 
186.779999 -363.635986 -1551.250000 
59.757198 6.569100 -1565.609985 
-72.237701 -139.110992 -1591.810059 
-10.794000 -61.238701 -1487.319946 
-16.223200 89.076897 -1651.520020 
64.461403 -10.053700 -1617.359985 
191.453995 -392.450989 -1641.719971 
-105.661003 -177.787994 -1621.939941 
-73.758499 -146.634995 -1595.229980 
-108.088997 -14.979500 -1617.180054 
43.150902 -184.509995 -1597.349976 
48.924400 -24.992599 -1544.369995 
-101.464996 -44.205299 -1640.699951 
-54.942600 -143.695999 -1650.660034 
-100.462997 -38.891899 -1679.709961 
-32.928600 -209.128006 -1553.119995 
5.556050 -324.101990 -1497.739990 
-32.624500 -67.182404 -1670.969971 
110.888000 -298.712006 -1548.630005 
195.335999 -388.550995 -1637.170044 
50.891102 -27.295700 -1692.000000 
-4.244320 -55.887100 -1482.109985 
-230.192001 -328.807007 -1548.819946 
-87.150803 -48.519600 -1627.630005 
138.666000 -343.654999 -1533.310059 
-100.333000 -283.867004 -1523.479980 
-68.559601 -160.210999 -1580.520020 
-73.227997 2.814490 -1691.030029 
-93.635498 -3.409820 -1664.930054 
-30.914200 30.074499 -1716.390015 
30.409401 -359.951996 -1706.790039 
58.007301 -8.724130 -1606.729980 
-15.851300 -201.727997 -1558.579956 
-76.518799 -271.337006 -1519.849976 
25.363501 -54.545700 -1695.869995 
-47.183201 90.378998 -1652.939941 
42.728901 -381.056000 -1705.069946 
24.593800 -36.898300 -1515.109985 
21.653700 -73.122002 -1644.180054 
-86.456802 -23.038401 -1702.430054 
-97.563599 -366.648010 -1499.280029 
74.355202 -295.205994 -1691.939941 
-80.196899 -80.084396 -1566.619995 
56.989799 -43.492001 -1630.530029 
-3.004920 74.000198 -1677.430054 
6.963070 -224.576004 -1682.699951 
137.546005 -385.739014 -1525.510010 
25.069901 -373.920013 -1705.780029 
62.697399 -183.270996 -1636.369995 
-58.414001 -386.773010 -1483.219971 
91.122002 -266.799011 -1686.000000 
44.197800 -18.059999 -1533.119995 
-58.996101 -336.567993 -1494.729980 
102.459999 -375.723999 -1696.729980 
-18.811300 -2.295120 -1729.790039 
-95.138100 -17.178499 -1581.300049 
-14.066700 -273.677002 -1513.819946 
173.001999 -277.737000 -1630.959961 
-130.007004 -340.364014 -1517.739990 
-247.563004 -352.377991 -1623.780029 
49.451801 -64.292503 -1589.910034 
199.121002 -351.709991 -1628.239990 
9.310680 -54.869701 -1675.609985 
55.065601 -38.656300 -1600.339966 
-68.070198 -274.330994 -1516.550049 
-55.436001 43.079300 -1693.920044 
-18.894501 -343.778992 -1705.599976 
32.898102 -360.612000 -1494.189941 
-56.200500 -53.342300 -1697.729980 
-199.507004 -222.167999 -1608.040039 
13.982900 -111.486000 -1633.750000 
-188.697998 -329.526001 -1528.060059 
-37.167900 92.055298 -1615.349976 
90.266098 -311.623993 -1689.689941 
-112.727997 -355.082001 -1702.390015 
-230.128998 -359.131012 -1656.369995 
56.530201 61.709999 -1627.359985 
-139.457993 -326.117004 -1523.579956 
52.948002 -10.289100 -1660.510010 
111.386002 -393.213013 -1693.229980 
125.122002 -283.033997 -1553.229980 
-75.867401 -148.643005 -1625.410034 
56.083801 42.514801 -1608.459961 
64.311600 -23.213699 -1597.010010 
-12.134400 89.849602 -1586.510010 
194.395996 -318.098999 -1594.510010 
45.150501 49.741798 -1550.650024 
9.801560 31.068001 -1502.890015 
-31.607700 -42.560501 -1699.920044 
-149.996994 -373.398987 -1695.609985 
-117.023003 -281.855988 -1535.109985 
-21.174101 -211.834000 -1551.180054 
187.660004 -338.966003 -1647.050049 
0.825324 54.573601 -1695.719971 
61.437401 -33.898602 -1614.079956 
122.004997 -262.080994 -1560.880005 
-236.492996 -306.606995 -1631.939941 
52.479301 -191.061996 -1592.010010 
100.891998 -362.362000 -1518.989990 
12.216200 -291.403015 -1695.000000 
1.519280 -385.433014 -1481.709961 
110.342003 -300.842010 -1545.670044 
-230.585999 -353.540009 -1654.010010 
