0.000000 0.085440 0.000000 
-0.008640 0.087840 0.000000 
-0.010999 0.034800 0.030221 
-0.010260 0.040800 0.028191 
0.000373 0.084000 -0.001391 
-0.003085 0.087120 0.003677 
0.034502 0.020880 -0.019920 
0.005210 0.040800 0.029544 
0.006669 -0.004800 0.037817 
0.003709 0.098400 0.000994 
0.000000 0.070800 0.022080 
-0.002501 0.085440 -0.014181 
0.007483 0.087840 0.004320 
-0.024808 0.052800 0.009030 
-0.005210 0.040800 -0.029544 
-0.041497 0.007200 -0.015103 
-0.036581 0.000000 -0.021120 
-0.008537 0.058800 0.023455 
0.023141 0.027360 0.027577 
0.004727 0.087120 -0.000834 
0.016080 0.034800 0.027851 
-0.016914 0.070800 -0.014193 
0.003677 0.087120 0.003085 
0.002955 0.087840 -0.008119 
-0.033828 0.007200 0.028386 
0.014776 0.014400 0.040595 
-0.013605 0.081600 -0.011416 
-0.008509 0.087840 0.001500 
0.008880 0.081600 0.015381 
-0.000000 0.014400 -0.043200 
0.006919 0.020880 0.039235 
0.010999 0.034800 -0.030221 
-0.020959 -0.012480 -0.017587 
-0.003709 0.098400 -0.000994 
-0.002318 0.091200 -0.000621 
-0.026944 -0.012480 0.004751 
-0.034502 0.020880 0.019920 
0.008119 0.087840 -0.002955 
-0.028475 -0.009600 -0.016440 
0.006075 0.081600 0.016689 
0.011000 0.034800 0.030220 
0.001500 0.087840 -0.008509 
0.026161 0.046560 -0.009522 
0.023520 0.064800 0.000000 
-0.000000 0.076080 -0.020640 
-0.033256 -0.004800 -0.019200 
-0.015104 0.007200 -0.041497 
-0.016440 -0.009600 0.028475 
-0.007552 0.070800 -0.020748 
0.025999 0.052800 0.004584 
0.003417 -0.014880 -0.019381 
-0.004751 -0.012480 -0.026944 
0.022982 0.040800 0.019283 
0.025710 -0.012480 0.009357 
0.001200 0.091200 -0.002078 
0.006251 0.027360 -0.035453 
0.000000 -0.009600 0.032880 
-0.000720 0.084000 0.001247 
-0.006731 -0.014880 -0.018493 
-0.000720 0.084000 -0.001247 
-0.000621 0.091200 -0.002318 
-0.043489 0.007200 -0.007668 
-0.013920 0.046560 0.024110 
-0.024110 0.046560 -0.013920 
0.004727 0.087120 0.000833 
-0.025981 0.040800 -0.015000 
-0.001920 0.098400 0.003326 
-0.017895 0.046560 0.021327 
-0.016044 0.058800 -0.019120 
-0.013680 -0.012480 -0.023694 
-0.001440 0.084000 0.000000 
0.019381 -0.014880 0.003417 
-0.029416 -0.004800 0.024683 
-0.025710 -0.012480 0.009358 
-0.005584 0.034800 0.031671 
0.014447 0.000000 0.039692 
-0.004511 0.087120 0.001642 
-0.000994 0.098400 -0.003709 
-0.008044 0.064800 -0.022102 
0.000000 -0.012480 0.027360 
0.023140 0.027360 -0.027578 
-0.009522 0.046560 0.026161 
0.003709 0.098400 -0.000994 
0.017895 0.046560 -0.021327 
-0.027840 0.046560 0.000000 
0.025609 0.020880 0.030519 
-0.020369 0.064800 -0.011760 
-0.003584 0.076080 -0.020326 
0.004084 0.064800 0.023163 
0.007502 0.014400 0.042544 
0.037817 -0.004800 -0.006668 
0.019920 0.020880 0.034502 
-0.015381 0.081600 -0.008880 
0.020224 0.052800 -0.016970 
-0.022080 0.070800 0.000000 
-0.000000 0.034800 -0.032160 
0.012313 0.027360 -0.033829 
-0.000000 0.098400 -0.003840 
0.039693 0.000000 0.014446 
-0.044160 0.007200 0.000000 
-0.020327 0.076080 -0.003584 
0.003584 0.076080 -0.020327 
0.007335 0.000000 -0.041598 
-0.034503 0.020880 -0.019920 
0.000720 0.084000 0.001247 
-0.036084 -0.004800 -0.013133 
-0.001247 0.084000 -0.000720 
0.012480 0.058800 0.021616 
-0.033093 0.014400 -0.027768 
0.013532 0.085440 0.004925 
-0.001920 0.098400 -0.003326 
-0.020672 0.034800 -0.024636 
-0.030220 0.034800 0.011000 
-0.033829 0.027360 -0.012313 
0.042544 0.014400 0.007501 
0.014181 0.085440 -0.002501 
-0.038244 0.007200 0.022080 
0.040595 0.014400 -0.014775 
-0.037817 -0.004800 0.006668 
-0.023141 0.027360 -0.027578 
0.039235 0.020880 0.006918 
0.028191 0.040800 0.010260 
-0.027578 0.027360 -0.023140 
-0.022863 0.052800 -0.013200 
-0.015118 0.064800 0.018017 
-0.039235 0.020880 0.006918 
-0.003417 -0.014880 0.019381 
0.000000 0.034800 0.032160 
0.003776 -0.016320 0.010374 
0.004585 0.052800 0.025999 
-0.002715 0.098400 0.002715 
-0.003709 0.098400 -0.000994 
-0.020959 -0.012480 0.017587 
-0.017895 0.046560 -0.021327 
-0.039693 0.000000 -0.014447 
0.013267 0.076080 -0.015811 
-0.019920 0.020880 -0.034502 
-0.014400 0.085440 0.000000 
0.004157 0.087120 0.002400 
-0.019122 0.070800 0.011040 
0.022080 0.007200 -0.038244 
-0.005554 0.087840 0.006619 
0.023455 0.058800 -0.008537 
0.020748 0.070800 -0.007552 
-0.007502 0.014400 -0.042544 
0.016044 0.058800 0.019120 
-0.029544 0.040800 0.005210 
-0.021120 0.000000 0.036581 
0.003085 0.087120 0.003677 
-0.036581 0.000000 0.021120 
0.011760 0.064800 0.020369 
0.000994 0.098400 -0.003709 
-0.000834 0.087120 -0.004727 
-0.021135 -0.009600 0.025188 
-0.013200 0.052800 0.022863 
-0.033829 0.027360 0.012313 
-0.019284 0.040800 -0.022981 
0.008457 -0.016320 0.007096 
0.005520 -0.016320 -0.009561 
-0.042240 0.000000 0.000000 
0.006731 -0.014880 -0.018493 
-0.013267 0.076080 0.015811 
-0.007335 0.000000 -0.041598 
-0.035453 0.027360 -0.006251 
0.013267 0.076080 0.015811 
0.032358 0.000000 -0.027151 
0.020749 0.070800 0.007552 
-0.016440 -0.009600 -0.028475 
0.019381 -0.014880 -0.003417 
-0.011000 0.034800 -0.030221 
0.011031 0.085440 0.009256 
0.004511 0.087120 -0.001642 
-0.024581 0.058800 0.004334 
-0.027577 0.027360 0.023141 
0.002715 0.098400 0.002715 
0.017587 -0.012480 0.020959 
0.010872 -0.016320 0.001917 
-0.025608 0.020880 0.030520 
0.026944 -0.012480 -0.004751 
-0.000000 0.081600 -0.017760 
-0.027768 0.014400 0.033093 
0.015381 0.081600 -0.008880 
0.037437 0.020880 -0.013626 
-0.000000 0.091200 -0.002400 
-0.013920 0.046560 -0.024110 
0.007501 0.014400 -0.042544 
0.000000 -0.014880 0.019680 
0.023694 -0.012480 -0.013680 
0.006668 -0.004800 -0.037817 
-0.000000 -0.012480 -0.027360 
0.000000 0.081600 0.017760 
0.025981 0.040800 -0.015000 
0.000000 0.000000 0.042240 
-0.023163 0.064800 -0.004084 
0.044160 0.007200 0.000000 
0.026400 0.052800 0.000000 
0.021600 0.014400 -0.037412 
-0.019122 0.070800 -0.011040 
0.002318 0.091200 -0.000621 
0.001200 0.091200 0.002078 
0.009358 -0.012480 0.025710 
0.041497 0.007200 -0.015104 
-0.017875 0.076080 -0.010320 
0.004751 -0.012480 0.026944 
-0.009561 -0.016320 -0.005520 
0.005585 0.034800 0.031671 
-0.007482 0.087840 0.004320 
0.030519 0.020880 -0.025609 
-0.037817 -0.004800 -0.006668 
-0.019920 0.020880 0.034503 
0.030221 0.034800 0.010999 
-0.003677 0.087120 0.003085 
-0.010872 -0.016320 -0.001917 
-0.013605 0.081600 0.011416 
0.019200 -0.004800 0.033255 
0.007059 0.076080 -0.019395 
-0.027769 0.014400 -0.033093 
0.009256 0.085440 -0.011031 
-0.009029 0.052800 0.024808 
0.038400 -0.004800 0.000000 
0.029544 0.040800 0.005209 
-0.020749 0.070800 -0.007552 
-0.032381 -0.009600 -0.005709 
0.021327 0.046560 0.017895 
0.020959 -0.012480 0.017586 
-0.015000 0.040800 -0.025981 
0.005584 0.034800 -0.031671 
0.027151 0.000000 -0.032358 
-0.011040 -0.016320 0.000000 
0.019284 0.040800 0.022981 
0.001440 0.084000 0.000000 
0.027152 0.000000 0.032357 
-0.017587 -0.012480 -0.020959 
-0.005209 0.040800 0.029544 
0.040595 0.014400 0.014775 
0.005209 0.040800 -0.029544 
-0.008457 -0.016320 -0.007096 
-0.017760 0.081600 0.000000 
0.004925 0.085440 0.013532 
-0.004800 0.087120 0.000000 
-0.008880 0.081600 -0.015381 
0.030221 0.034800 -0.010999 
0.016970 0.052800 0.020223 
-0.000373 0.084000 -0.001391 
-0.026161 0.046560 -0.009522 
0.008457 -0.016320 -0.007096 
-0.004727 0.087120 0.000834 
-0.001500 0.087840 -0.008509 
-0.024960 0.058800 0.000000 
-0.021600 0.014400 -0.037412 
-0.043200 0.014400 0.000000 
-0.004925 0.085440 0.013532 
-0.006731 -0.014880 0.018493 
0.016440 -0.009600 0.028475 
-0.042544 0.014400 -0.007501 
0.000000 0.096960 0.000000 
0.009840 -0.014880 -0.017043 
-0.023520 0.064800 0.000000 
-0.001920 0.098400 0.003326 
-0.033829 0.007200 -0.028385 
-0.004157 0.087120 0.002400 
0.007668 0.007200 -0.043489 
-0.032160 0.034800 0.000000 
0.012471 0.085440 -0.007200 
-0.015381 0.081600 0.008880 
-0.013200 0.052800 -0.022863 
0.009030 0.052800 0.024808 
0.011040 -0.016320 0.000000 
-0.000000 -0.016320 -0.011040 
0.032381 -0.009600 -0.005710 
-0.017875 0.076080 0.010320 
-0.025188 -0.009600 -0.021135 
-0.025710 -0.012480 -0.009357 
0.017875 0.076080 -0.010320 
0.005709 -0.009600 -0.032381 
-0.017043 -0.014880 0.009840 
-0.024636 0.034800 -0.020672 
0.017044 -0.014880 0.009840 
-0.003417 -0.014880 -0.019381 
0.017043 -0.014880 -0.009840 
0.001920 0.098400 -0.003326 
0.016440 -0.009600 -0.028475 
0.002715 0.098400 0.002715 
-0.002955 0.087840 0.008119 
0.039235 0.020880 -0.006918 
0.021745 0.070800 0.003834 
0.017896 0.046560 0.021326 
-0.006619 0.087840 -0.005554 
-0.001917 -0.016320 0.010872 
-0.007552 0.070800 0.020749 
0.002400 0.087120 0.004157 
0.012650 -0.014880 0.015076 
-0.002955 0.087840 -0.008119 
-0.018493 -0.014880 0.006731 
0.023163 0.064800 -0.004084 
-0.001391 0.084000 -0.000373 
0.033829 0.027360 -0.012313 
0.003834 0.070800 0.021745 
-0.002715 0.098400 -0.002715 
0.016914 0.070800 -0.014193 
0.013532 0.085440 -0.004925 
0.025999 0.052800 -0.004584 
-0.016914 0.070800 0.014193 
-0.032358 0.000000 -0.027151 
-0.000000 0.084000 -0.001440 
-0.036084 -0.004800 0.013134 
0.030897 -0.009600 -0.011246 
-0.006251 0.027360 -0.035453 
-0.028475 -0.009600 0.016440 
-0.028385 0.007200 0.033829 
0.018000 0.027360 -0.031177 
0.002400 0.091200 0.000000 
0.017875 0.076080 0.010320 
-0.024110 0.046560 0.013920 
0.013605 0.081600 0.011416 
-0.011245 -0.009600 0.030897 
-0.008119 0.087840 0.002955 
0.006619 0.087840 0.005554 
-0.006668 -0.004800 0.037817 
0.039840 0.020880 0.000000 
0.007096 -0.016320 -0.008457 
0.000994 0.098400 0.003709 
0.002715 0.098400 -0.002715 
0.000000 0.040800 0.030000 
0.009358 -0.012480 -0.025710 
-0.039840 0.020880 0.000000 
0.009561 -0.016320 -0.005520 
-0.021616 0.058800 0.012480 
0.024636 0.034800 -0.020672 
0.015119 0.064800 0.018017 
0.020327 0.076080 0.003584 
0.012480 0.058800 -0.021616 
-0.026400 0.052800 0.000000 
-0.017587 -0.012480 0.020959 
0.013133 -0.004800 -0.036084 
0.015076 -0.014880 -0.012650 
0.003326 0.098400 0.001920 
-0.031671 0.034800 0.005585 
-0.008119 0.087840 -0.002955 
-0.000000 0.027360 -0.036000 
0.036581 0.000000 0.021119 
-0.008457 -0.016320 0.007096 
0.004800 0.087120 0.000000 
-0.001200 0.091200 -0.002078 
-0.014181 0.085440 0.002501 
0.041598 0.000000 0.007334 
0.010374 -0.016320 -0.003776 
0.015811 0.076080 0.013267 
-0.018017 0.064800 0.015119 
0.001391 0.084000 -0.000373 
-0.036000 0.027360 0.000000 
0.027769 0.014400 0.033093 
-0.013680 -0.012480 0.023695 
-0.008044 0.064800 0.022102 
-0.008880 0.081600 0.015381 
-0.007668 0.007200 -0.043489 
-0.022102 0.064800 -0.008044 
0.005710 -0.009600 0.032380 
0.012650 -0.014880 -0.015076 
0.015811 0.076080 -0.013267 
-0.007096 -0.016320 0.008457 
0.001920 0.098400 0.003326 
0.005554 0.087840 0.006619 
0.000834 0.087120 0.004727 
-0.020672 0.034800 0.024636 
0.003418 -0.014880 0.019381 
-0.025981 0.040800 0.015000 
-0.003834 0.070800 0.021745 
0.041497 0.007200 0.015103 
0.038244 0.007200 -0.022080 
0.015118 0.064800 -0.018017 
-0.020369 0.064800 0.011760 
-0.002400 0.087120 -0.004157 
-0.001018 0.084000 -0.001018 
0.009256 0.085440 0.011031 
0.004584 0.052800 -0.025999 
-0.008537 0.058800 -0.023455 
0.005554 0.087840 -0.006619 
-0.007096 -0.016320 -0.008457 
0.022080 0.007200 0.038243 
-0.004834 0.046560 0.027417 
-0.000000 0.007200 -0.044160 
-0.007501 0.014400 0.042544 
-0.000000 0.046560 -0.027840 
-0.001917 -0.016320 -0.010872 
0.043200 0.014400 0.000000 
-0.003840 0.098400 0.000000 
0.024581 0.058800 0.004334 
-0.000000 0.085440 -0.014400 
-0.000000 0.040800 -0.030000 
-0.032357 0.000000 0.027152 
0.038244 0.007200 0.022079 
-0.012650 -0.014880 -0.015076 
0.000833 0.087120 -0.004727 
-0.001500 0.087840 0.008509 
-0.006619 0.087840 0.005554 
-0.030221 0.034800 -0.010999 
-0.001697 0.091200 0.001697 
-0.003084 0.081600 0.017490 
-0.004084 0.064800 0.023163 
0.037817 -0.004800 0.006668 
0.010374 -0.016320 0.003776 
0.009561 -0.016320 0.005520 
-0.006918 0.020880 0.039235 
0.026944 -0.012480 0.004751 
0.018018 0.064800 0.015118 
0.027578 0.027360 -0.023140 
0.015381 0.081600 0.008880 
0.001247 0.084000 -0.000720 
0.000000 0.064800 0.023520 
0.013680 -0.012480 -0.023695 
0.004320 0.087840 -0.007482 
0.000000 -0.016320 0.011040 
0.000000 0.098400 0.003840 
-0.015811 0.076080 0.013267 
0.001642 0.087120 0.004510 
-0.020326 0.076080 0.003584 
0.020672 0.034800 0.024636 
-0.011416 0.081600 -0.013605 
0.002318 0.091200 0.000621 
0.000373 0.084000 0.001391 
-0.000833 0.087120 0.004727 
-0.004727 0.087120 -0.000833 
-0.021327 0.046560 -0.017895 
0.020672 0.034800 -0.024636 
-0.027417 0.046560 -0.004834 
-0.010320 0.076080 0.017875 
0.019395 0.076080 -0.007059 
0.043489 0.007200 0.007668 
-0.035453 0.027360 0.006252 
0.000000 0.091200 0.002400 
-0.006668 -0.004800 -0.037817 
0.000994 0.098400 -0.003709 
-0.004751 -0.012480 0.026944 
-0.032880 -0.009600 0.000000 
0.001391 0.084000 0.000373 
-0.003326 0.098400 0.001920 
-0.030897 -0.009600 0.011246 
-0.000000 0.020880 -0.039840 
-0.022102 0.064800 0.008045 
-0.017490 0.081600 -0.003084 
-0.018493 -0.014880 -0.006731 
0.001917 -0.016320 -0.010872 
-0.023163 0.064800 0.004084 
-0.005520 -0.016320 -0.009561 
0.019284 0.040800 -0.022981 
-0.023140 0.027360 0.027578 
0.000000 -0.016800 0.000000 
0.007552 0.070800 -0.020748 
-0.003776 -0.016320 0.010374 
0.031177 0.027360 0.018000 
0.013200 0.052800 0.022863 
-0.041497 0.007200 0.015104 
0.017490 0.081600 0.003084 
0.000000 0.085440 0.014400 
-0.015811 0.076080 -0.013267 
0.024960 0.058800 0.000000 
-0.013626 0.020880 -0.037437 
-0.000994 0.098400 0.003709 
-0.019381 -0.014880 -0.003417 
-0.021600 0.014400 0.037413 
-0.000000 0.098400 -0.003840 
-0.003085 0.087120 -0.003677 
0.036000 0.027360 0.000000 
-0.004334 0.058800 -0.024581 
0.004925 0.085440 -0.013532 
0.010872 -0.016320 -0.001917 
-0.007059 0.076080 0.019395 
0.018493 -0.014880 0.006731 
-0.009256 0.085440 0.011031 
-0.010261 0.040800 -0.028191 
0.042544 0.014400 -0.007502 
0.019395 0.076080 0.007059 
-0.020748 0.070800 0.007552 
-0.003840 0.098400 0.000000 
0.026161 0.046560 0.009521 
0.010261 0.040800 0.028191 
0.024581 0.058800 -0.004334 
-0.010872 -0.016320 0.001917 
-0.000000 0.052800 -0.026400 
0.031671 0.034800 -0.005585 
0.028475 -0.009600 0.016440 
0.032880 -0.009600 0.000000 
-0.022981 0.040800 0.019284 
-0.023455 0.058800 -0.008537 
-0.020223 0.052800 0.016970 
0.010320 0.076080 -0.017875 
0.025188 -0.009600 0.021135 
0.000994 0.098400 0.003709 
0.009522 0.046560 -0.026161 
0.024110 0.046560 0.013920 
-0.013133 -0.004800 0.036084 
0.013680 -0.012480 0.023694 
-0.002078 0.091200 -0.001200 
-0.011040 0.070800 -0.019122 
-0.003709 0.098400 0.000994 
-0.010320 0.076080 -0.017875 
0.013605 0.081600 -0.011416 
0.021135 -0.009600 -0.025188 
0.020369 0.064800 -0.011760 
-0.027417 0.046560 0.004835 
-0.000000 -0.009600 -0.032880 
-0.009358 -0.012480 -0.025710 
-0.017044 -0.014880 -0.009840 
0.028386 0.007200 0.033828 
-0.019121 0.058800 -0.016044 
0.002078 0.091200 0.001200 
-0.027151 0.000000 0.032358 
0.007482 0.087840 -0.004320 
-0.016970 0.052800 -0.020223 
0.003084 0.081600 0.017490 
-0.019200 -0.004800 0.033256 
-0.004584 0.052800 0.025999 
0.027768 0.014400 -0.033093 
0.001917 -0.016320 0.010872 
-0.039235 0.020880 -0.006918 
0.024808 0.052800 -0.009029 
0.003584 0.076080 0.020326 
-0.020640 0.076080 0.000000 
0.003709 0.098400 -0.000994 
-0.037412 0.014400 -0.021600 
0.022981 0.040800 -0.019284 
-0.000000 0.000000 -0.042240 
-0.021745 0.070800 -0.003834 
0.008045 0.064800 0.022102 
0.020640 0.076080 0.000000 
0.031671 0.034800 0.005584 
-0.000000 -0.004800 -0.038400 
0.004084 0.064800 -0.023163 
-0.025999 0.052800 0.004585 
-0.019395 0.076080 0.007059 
-0.011416 0.081600 0.013605 
0.000000 0.087120 0.004800 
0.027578 0.027360 0.023140 
0.033829 0.027360 0.012312 
0.007335 0.000000 0.041598 
0.031177 0.027360 -0.018000 
-0.007200 0.085440 0.012471 
0.025188 -0.009600 -0.021135 
-0.020224 0.052800 -0.016969 
0.015076 -0.014880 0.012650 
-0.027852 0.034800 -0.016080 
0.010261 0.040800 -0.028191 
0.011416 0.081600 -0.013605 
0.028385 0.007200 -0.033829 
0.021745 0.070800 -0.003834 
0.000000 0.076080 0.020640 
-0.004584 0.052800 -0.025999 
-0.007668 0.007200 0.043489 
-0.001247 0.084000 0.000720 
-0.007059 0.076080 -0.019395 
-0.000000 -0.014880 -0.019680 
0.011760 0.064800 -0.020369 
-0.031671 0.034800 -0.005584 
-0.011246 -0.009600 -0.030897 
-0.026161 0.046560 0.009522 
0.007096 -0.016320 0.008457 
0.002400 0.087120 -0.004157 
0.013920 0.046560 -0.024110 
0.000000 0.052800 0.026400 
0.019122 0.070800 0.011040 
0.001500 0.087840 0.008509 
0.011246 -0.009600 0.030897 
-0.004084 0.064800 -0.023163 
-0.010374 -0.016320 -0.003776 
-0.025999 0.052800 -0.004584 
-0.013134 -0.004800 -0.036084 
0.003709 0.098400 0.000994 
0.006918 0.020880 -0.039235 
-0.000621 0.091200 0.002318 
-0.019680 -0.014880 0.000000 
0.013626 0.020880 -0.037437 
0.002955 0.087840 0.008119 
-0.009256 0.085440 -0.011031 
-0.028191 0.040800 -0.010260 
0.030897 -0.009600 0.011245 
0.014447 0.000000 -0.039693 
-0.030897 -0.009600 -0.011245 
-0.003326 0.098400 0.001920 
0.008044 0.064800 -0.022102 
0.011416 0.081600 0.013605 
0.002501 0.085440 0.014181 
-0.001391 0.084000 0.000373 
-0.002400 0.087120 0.004157 
-0.000373 0.084000 0.001391 
-0.021135 -0.009600 -0.025187 
0.033093 0.014400 -0.027769 
0.033829 0.007200 0.028385 
-0.016044 0.058800 0.019121 
-0.024636 0.034800 0.020672 
0.042240 0.000000 0.000000 
0.016914 0.070800 0.014193 
-0.038244 0.007200 -0.022080 
0.033255 -0.004800 -0.019200 
0.001920 0.098400 0.003326 
-0.031177 0.027360 0.018000 
-0.025609 0.020880 -0.030519 
-0.004925 0.085440 -0.013532 
-0.030000 0.040800 0.000000 
-0.012313 0.027360 -0.033829 
-0.017490 0.081600 0.003084 
-0.007334 0.000000 0.041598 
0.001642 0.087120 -0.004511 
-0.011760 0.064800 0.020369 
0.014193 0.070800 0.016914 
-0.007482 0.087840 -0.004320 
-0.018017 0.064800 -0.015118 
-0.007200 0.085440 -0.012471 
-0.002318 0.091200 0.000621 
-0.030519 0.020880 0.025609 
0.011031 0.085440 -0.009256 
-0.000000 0.064800 -0.023520 
0.019920 0.020880 -0.034502 
-0.009522 0.046560 -0.026161 
-0.012650 -0.014880 0.015076 
-0.009357 -0.012480 0.025710 
0.011040 0.070800 0.019122 
-0.015076 -0.014880 0.012650 
0.001697 0.091200 -0.001697 
0.000000 0.014400 0.043200 
-0.001200 0.091200 0.002078 
0.032358 0.000000 0.027151 
0.000000 0.084000 0.001440 
0.007200 0.085440 -0.012471 
0.003326 0.098400 0.001920 
0.023163 0.064800 0.004084 
-0.014193 0.070800 -0.016914 
0.024683 -0.004800 0.029416 
0.000000 0.087840 0.008640 
-0.003834 0.070800 -0.021745 
-0.013532 0.085440 -0.004925 
-0.022080 0.007200 0.038244 
0.018493 -0.014880 -0.006731 
-0.004157 0.087120 -0.002400 
-0.027851 0.034800 0.016080 
-0.009561 -0.016320 0.005520 
-0.012480 0.058800 0.021616 
0.025981 0.040800 0.015000 
-0.039692 0.000000 0.014447 
-0.002400 0.091200 0.000000 
-0.005710 -0.009600 -0.032381 
-0.019283 0.040800 0.022981 
0.006619 0.087840 -0.005554 
0.002715 0.098400 -0.002715 
0.003840 0.098400 0.000000 
0.036084 -0.004800 -0.013134 
0.017490 0.081600 -0.003084 
0.008537 0.058800 -0.023455 
-0.003584 0.076080 0.020327 
-0.028386 0.007200 -0.033828 
0.041598 0.000000 -0.007335 
0.009840 -0.014880 0.017043 
0.043489 0.007200 -0.007668 
-0.006918 0.020880 -0.039235 
0.006731 -0.014880 0.018493 
-0.033093 0.014400 0.027769 
-0.019395 0.076080 -0.007059 
-0.024808 0.052800 -0.009029 
0.030000 0.040800 0.000000 
0.004334 0.058800 -0.024581 
0.022080 0.070800 0.000000 
0.007200 0.085440 0.012471 
0.003677 0.087120 -0.003085 
-0.016080 0.034800 0.027852 
0.001247 0.084000 0.000720 
-0.016689 0.081600 0.006074 
0.022863 0.052800 -0.013200 
-0.009840 -0.014880 0.017044 
-0.005520 -0.016320 0.009561 
0.019121 0.058800 0.016044 
-0.019200 -0.004800 -0.033255 
0.001920 0.098400 -0.003326 
0.030520 0.020880 0.025608 
-0.011040 0.070800 0.019122 
0.008509 0.087840 0.001500 
0.025710 -0.012480 -0.009358 
0.014193 0.070800 -0.016914 
-0.022080 0.007200 -0.038244 
0.003834 0.070800 -0.021745 
-0.016080 0.034800 -0.027851 
0.021135 -0.009600 0.025187 
-0.021616 0.058800 -0.012480 
0.007552 0.070800 0.020748 
-0.000000 0.087120 -0.004800 
0.019122 0.070800 -0.011040 
-0.024581 0.058800 -0.004334 
-0.006074 0.081600 -0.016689 
-0.031177 0.027360 -0.018000 
-0.004320 0.087840 -0.007482 
0.020326 0.076080 -0.003584 
-0.029544 0.040800 -0.005209 
0.019200 -0.004800 -0.033255 
0.007060 0.076080 0.019395 
-0.043489 0.007200 0.007669 
0.021327 0.046560 -0.017895 
0.027851 0.034800 -0.016080 
-0.010374 -0.016320 0.003776 
-0.040595 0.014400 0.014776 
-0.000000 0.058800 -0.024960 
0.008537 0.058800 0.023455 
0.027360 -0.012480 0.000000 
0.004835 0.046560 0.027417 
-0.012312 0.027360 0.033829 
0.021601 0.014400 0.037412 
-0.014776 0.014400 -0.040595 
-0.037437 0.020880 0.013626 
0.001018 0.084000 -0.001018 
-0.028191 0.040800 0.010261 
0.019120 0.058800 -0.016044 
-0.011760 0.064800 -0.020369 
-0.015119 0.064800 -0.018017 
0.008509 0.087840 -0.001500 
0.021616 0.058800 0.012480 
0.003326 0.098400 -0.001920 
0.037413 0.014400 0.021600 
0.021616 0.058800 -0.012480 
-0.011031 0.085440 -0.009256 
0.033828 0.007200 -0.028386 
0.024808 0.052800 0.009029 
0.000621 0.091200 -0.002318 
-0.033255 -0.004800 0.019200 
-0.004834 0.046560 -0.027417 
-0.012480 0.058800 -0.021616 
0.004157 0.087120 -0.002400 
0.010320 0.076080 0.017875 
0.019680 -0.014880 0.000000 
0.035453 0.027360 -0.006251 
0.022102 0.064800 0.008044 
-0.041598 0.000000 0.007335 
0.032381 -0.009600 0.005709 
0.013627 0.020880 0.037437 
0.012313 0.027360 0.033829 
0.023455 0.058800 0.008536 
-0.014181 0.085440 -0.002500 
0.022102 0.064800 -0.008044 
0.001018 0.084000 0.001018 
-0.023694 -0.012480 0.013680 
0.018017 0.064800 -0.015118 
-0.015103 0.007200 0.041497 
0.003085 0.087120 -0.003677 
0.033256 -0.004800 0.019200 
-0.003677 0.087120 -0.003085 
-0.016969 0.052800 0.020224 
-0.018000 0.027360 -0.031177 
0.002500 0.085440 -0.014181 
0.024683 -0.004800 -0.029416 
-0.021327 0.046560 0.017895 
-0.013532 0.085440 0.004925 
-0.004320 0.087840 0.007482 
-0.024683 -0.004800 0.029416 
0.008119 0.087840 0.002955 
-0.005709 -0.009600 0.032381 
0.017760 0.081600 0.000000 
0.013134 -0.004800 0.036084 
-0.012471 0.085440 -0.007200 
-0.014193 0.070800 0.016914 
-0.001642 0.087120 0.004511 
0.018000 0.027360 0.031177 
0.013200 0.052800 -0.022863 
-0.002500 0.085440 0.014181 
0.000001 0.007200 0.044160 
0.020959 -0.012480 -0.017587 
-0.003326 0.098400 -0.001920 
-0.014447 0.000000 -0.039692 
0.003840 0.098400 0.000000 
0.027417 0.046560 0.004834 
0.035453 0.027360 0.006251 
-0.019381 -0.014880 0.003418 
-0.025187 -0.009600 0.021135 
-0.000000 0.070800 -0.022080 
0.000000 0.020880 0.039840 
-0.002715 0.098400 0.002715 
0.016689 0.081600 0.006074 
-0.003326 0.098400 -0.001920 
-0.001018 0.084000 0.001018 
-0.001920 0.098400 -0.003326 
-0.003084 0.081600 -0.017490 
-0.004334 0.058800 0.024581 
-0.002078 0.091200 0.001200 
0.004335 0.058800 0.024581 
-0.037412 0.014400 0.021600 
0.004834 0.046560 -0.027417 
0.016044 0.058800 -0.019120 
0.006252 0.027360 0.035453 
0.021121 0.000000 0.036581 
-0.015000 0.040800 0.025981 
0.003776 -0.016320 -0.010374 
-0.014446 0.000000 0.039693 
0.000000 -0.004800 0.038400 
0.036084 -0.004800 0.013133 
0.004751 -0.012480 -0.026944 
-0.005554 0.087840 -0.006619 
0.039693 0.000000 -0.014447 
0.027417 0.046560 -0.004834 
0.014181 0.085440 0.002500 
-0.012471 0.085440 0.007200 
-0.023455 0.058800 0.008537 
0.000000 0.058800 0.024960 
-0.022981 0.040800 -0.019283 
-0.016689 0.081600 -0.006074 
0.002078 0.091200 -0.001200 
-0.014775 0.014400 0.040595 
-0.001697 0.091200 -0.001697 
0.015000 0.040800 0.025981 
0.000720 0.084000 -0.001247 
0.004511 0.087120 0.001642 
0.013920 0.046560 0.024110 
0.015104 0.007200 -0.041497 
-0.019120 0.058800 0.016044 
-0.024683 -0.004800 -0.029416 
0.016969 0.052800 -0.020224 
-0.032380 -0.009600 0.005710 
-0.000994 0.098400 -0.003709 
-0.027151 0.000000 -0.032358 
0.012471 0.085440 0.007200 
-0.021120 0.000000 -0.036581 
-0.030519 0.020880 -0.025608 
-0.018000 0.027360 0.031177 
-0.027360 -0.012480 0.000000 
-0.042544 0.014400 0.007502 
-0.008509 0.087840 -0.001500 
0.000000 0.098400 0.003840 
0.027852 0.034800 0.016080 
-0.013267 0.076080 -0.015811 
-0.006074 0.081600 0.016689 
-0.003776 -0.016320 -0.010374 
0.028191 0.040800 -0.010261 
-0.041598 0.000000 -0.007335 
-0.011031 0.085440 0.009256 
0.008640 0.087840 0.000000 
0.024110 0.046560 -0.013920 
0.008880 0.081600 -0.015381 
0.003326 0.098400 -0.001920 
0.000621 0.091200 0.002318 
0.028475 -0.009600 -0.016440 
-0.023695 -0.012480 -0.013680 
0.000000 0.027360 0.036000 
-0.004511 0.087120 -0.001642 
-0.013626 0.020880 0.037437 
0.037412 0.014400 -0.021600 
-0.005585 0.034800 -0.031671 
0.009522 0.046560 0.026161 
0.029417 -0.004800 0.024683 
-0.001642 0.087120 -0.004511 
0.024636 0.034800 0.020672 
-0.006251 0.027360 0.035453 
-0.009840 -0.014880 -0.017043 
-0.026944 -0.012480 -0.004751 
0.017587 -0.012480 -0.020959 
-0.009029 0.052800 -0.024808 
0.004320 0.087840 0.007482 
0.029544 0.040800 -0.005209 
0.007669 0.007200 0.043489 
-0.000000 0.087840 -0.008640 
0.033093 0.014400 0.027768 
0.020369 0.064800 0.011760 
0.009029 0.052800 -0.024808 
0.006074 0.081600 -0.016689 
0.036581 0.000000 -0.021120 
0.025609 0.020880 -0.030519 
-0.040595 0.014400 -0.014775 
0.022863 0.052800 0.013200 
0.001697 0.091200 0.001697 
-0.037437 0.020880 -0.013626 
0.015104 0.007200 0.041497 
0.015000 0.040800 -0.025981 
0.005520 -0.016320 0.009561 
-0.029416 -0.004800 -0.024683 
0.016080 0.034800 -0.027851 
-0.038400 -0.004800 0.000000 
0.023695 -0.012480 0.013680 
-0.015076 -0.014880 -0.012650 
0.003084 0.081600 -0.017490 
-0.022863 0.052800 0.013200 
0.027840 0.046560 0.000000 
0.000000 0.046560 0.027840 
0.011040 0.070800 -0.019122 
0.037438 0.020880 0.013626 
0.020224 0.052800 0.016969 
0.021120 0.000000 -0.036581 
-0.000994 0.098400 0.003709 
0.014400 0.085440 0.000000 
-0.021745 0.070800 0.003834 
0.029416 -0.004800 -0.024683 
0.034503 0.020880 0.019920 
0.032160 0.034800 0.000000 
0.011246 -0.009600 -0.030897 
0.014775 0.014400 -0.040595 
-0.003709 0.098400 0.000994 
0.016689 0.081600 -0.006074 
-0.002715 0.098400 -0.002715 
